ply
format ascii 1.0
element vertex 51
property float x
property float y
property float z
property uchar red
property uchar green
property uchar blue
end_header
0 0 0 255 0 0
-5.202512 -11.478741 33.9702 145 3 3
-3.5982857 3.818396 -13.053944 193 112 11
-2.629984 2.6655927 -9.647425 20 20 1
-0.7999336 0.5965607 -3.3100972 17 17 1
3.832367 1.9477333 -11.907422 75 89 3
3.5956268 1.8720338 -11.497056 151 116 8
3.5783875 1.9070957 -11.785151 149 115 9
3.4488933 1.84637 -11.412477 172 102 9
2.9579914 1.7287134 -10.908928 143 119 8
2.7989533 1.645213 -10.385669 176 94 9
2.7501097 1.6966542 -10.827814 144 114 8
2.1889992 1.5722616 -10.317787 140 115 8
2.005481 1.5069386 -9.958505 163 105 9
1.7225549 1.3978736 -9.349965 147 113 8
1.6888323 1.4136283 -9.502776 142 111 8
1.6165595 1.3632413 -9.16584 171 98 9
0.2536338 0.28906953 -2.0062096 143 108 8
1.263811 1.2235954 -8.370708 176 93 10
1.0517409 1.0809493 -7.4501615 145 106 8
0.81909835 0.8225546 -5.651813 170 98 10
1.1150709 1.192912 -8.260165 149 108 8
1.0688884 1.1542555 -7.993723 177 93 10
0.75985885 0.8901561 -6.215606 160 101 9
0.93211085 1.0664585 -7.4257936 182 85 10
0.67503464 0.9352072 -6.630154 166 96 9
0.5905166 0.8992081 -6.4214344 173 89 10
0.5556089 0.8996866 -6.457934 136 106 7
0.43355712 0.7786202 -5.621032 164 97 9
0.35679528 0.729021 -5.3018765 169 89 9
0.20356931 0.53560466 -3.9408925 170 93 10
0.1367358 0.42937812 -3.1783044 172 90 9
0.12289107 0.45514217 -3.3911319 142 105 8
0.06024733 0.2829064 -2.1194851 147 102 8
0.057205763 0.2925683 -2.1941857 175 89 10
0.012998805 0.15678568 -1.1896659 151 97 7
0.010325334 0.1399577 -1.0618411 177 89 11
0.16719732 -0.22206107 1.8380867 165 93 10
0.20038931 -0.24567266 2.0456386 153 96 9
0.19329865 -0.23205428 1.9338114 173 88 11
0.28362533 -0.2465628 2.117222 174 79 10
0.39990425 -0.3307128 2.8568583 142 96 8
0.535217 -0.4127957 3.592243 150 94 9
0.55217355 -0.37136996 3.2867656 175 77 11
0.7344801 -0.47346506 4.220698 140 96 8
0.7026838 -0.447475 3.992332 171 81 11
0.7781303 -0.4732251 4.2291765 185 137 13
0.7643559 -0.45334923 4.1999016 5 106 5
-2.356128 -0.8934412 -8.978092 44 44 0
-4.644208 4.372001 15.252274 3 94 3
10.60406 22.25883 63.34265 70 90 2
