ply
format ascii 1.0
element vertex 820
property float x
property float y
property float z
property uchar red
property uchar green
property uchar blue
end_header
0 0 0 255 0 0
-0.54138047 0.28845918 -3.187676 138 113 132
-0.47803032 -0.28331563 3.1921709 109 81 104
-0.47386324 -0.29539445 3.34116 71 53 75
-0.47346035 -0.29796192 3.3725195 127 107 134
-0.47998613 -0.27522543 3.1224544 140 117 135
-0.47478855 -0.29208457 3.3141508 113 108 130
-0.56945735 0.25136712 -2.760225 145 124 143
-0.47488335 -0.2899937 3.306332 54 41 67
-0.4808797 -0.26695448 3.0497618 120 86 110
-0.48973727 -0.22001965 2.513097 110 77 96
-0.5379048 0.27769414 -3.161399 124 94 120
-0.48318928 -0.25075382 2.8673966 102 69 88
-0.4803068 -0.2669931 3.0528998 125 96 118
-0.5385417 0.27985823 -3.1924393 153 111 131
-0.47458786 -0.2909181 3.3294003 75 53 76
-0.48259124 -0.2543484 2.9137666 112 80 101
-0.5374936 0.2802377 -3.1997259 157 113 130
-0.4846109 -0.24568267 2.8334248 129 101 123
-0.48439825 -0.24716912 2.8501973 105 76 96
-0.47540665 -0.28692392 3.3099923 59 43 70
-0.48682162 -0.23195048 2.698201 140 109 125
-0.48327693 -0.2492815 2.8988843 137 114 134
-0.4841784 -0.24583614 2.8670778 115 86 108
-0.5461953 0.24048604 -2.8004005 69 57 71
-0.48918858 -0.21723512 2.5529392 117 92 111
-0.48828194 -0.21914944 2.587226 117 83 99
-0.5477111 0.29347777 -3.4527137 80 51 56
-0.54644394 0.24208403 -2.8490467 119 98 113
-0.5476903 0.24204718 -2.8554556 140 127 145
-0.4895454 -0.21327356 2.526173 94 62 85
-0.47342923 -0.28447312 3.3723712 59 44 65
-0.4845255 -0.23873359 2.83883 130 103 120
-0.4891836 -0.21443628 2.5529222 117 85 106
-0.5482593 0.24257681 -2.8965497 63 44 50
-0.5473311 0.24296725 -2.90266 56 35 42
-0.5427517 0.23299342 -2.7878628 139 124 145
-0.4478238 -0.7072192 8.57247 90 40 52
-0.47922736 -0.12968564 1.648452 110 68 78
-0.3404519 1.8131642 -21.886612 82 40 54
-0.61742526 1.6835864 -20.195566 90 51 69
-0.5479715 0.24196586 -2.905976 125 98 117
-0.41943267 -1.6983433 20.58294 102 56 67
-0.49215406 -0.19427267 2.367535 105 81 103
-0.47532934 -0.2753502 3.3599043 113 98 119
-0.49542218 -0.84836036 10.345802 106 65 71
-0.49895856 -0.4286845 5.238234 99 56 63
-0.47741553 0.6013153 -7.428812 114 71 80
-0.49436593 -0.18189378 2.2417367 93 72 105
-0.49369547 -0.18341392 2.260956 80 56 80
-0.48555356 -0.22378531 2.7573335 112 77 97
-0.40309182 -1.5688626 19.412226 101 54 72
-0.61855173 1.4992595 -18.6552 93 48 68
-0.48422036 0.51573056 -6.4971933 88 47 63
-0.4843284 -0.22399673 2.8138192 63 39 61
-0.4827913 -0.2335637 2.934061 122 99 119
-0.47926286 -0.24589802 3.0886662 48 34 49
-0.5579893 0.26657465 -3.3424525 116 87 107
-0.5465963 0.25232673 -3.171737 149 130 152
-0.49739712 -0.1668215 2.113446 107 75 86
-0.53537345 -0.11283246 1.5101609 102 75 94
-0.47824335 -0.24641107 3.1256897 66 52 69
-0.49387172 -0.42198095 5.3873105 99 56 66
-0.5018603 0.13977227 -1.6814554 122 93 121
-0.4861827 -0.21311863 2.7439916 114 77 95
-0.56065875 0.12004158 -1.5404651 108 76 97
-0.5421262 -0.07645467 1.067817 55 53 75
-0.49667716 -0.16533662 2.1366465 97 63 77
-0.5418224 -0.0761806 1.0656998 68 64 89
-0.5419459 -0.07640086 1.0682192 50 38 60
-0.49752963 -0.16133872 2.1043162 118 101 120
-0.49107498 -0.18924356 2.4740846 111 84 101
-0.55115026 0.1226106 -1.4288863 139 120 140
-0.48677063 -0.2048614 2.6978776 97 78 100
-0.498884 -0.15303189 2.017442 105 81 97
-0.46388522 0.14432947 -1.7962971 119 100 119
-0.4885855 -0.198615 2.6289968 95 76 98
-0.4873603 -0.44398534 5.888179 56 29 38
-0.49623916 0.1342255 -1.5834026 105 93 113
-0.49680617 -0.8152093 10.827241 71 33 44
-0.5177329 -0.30315936 4.0368557 148 89 95
-0.5191309 -0.30209225 4.0248866 141 84 90
-0.46284804 0.13800365 -1.7914987 103 83 108
-0.51160324 -0.097697765 1.3098062 133 104 122
-0.498723 0.26540926 -3.4580753 76 43 60
-0.50483364 0.36045355 -4.7305713 66 38 53
-0.48777512 -0.89078826 11.942036 94 47 65
-0.45230222 -1.4266808 19.155828 94 53 69
-0.49337742 -0.1757071 2.3651547 111 86 107
-0.4440615 -1.0091947 13.641525 80 39 55
-0.49946582 -0.14854474 2.0022485 131 108 126
-0.5151433 -0.0811219 1.0971395 94 74 102
-0.49950898 -0.14796652 1.9995496 114 93 110
-0.55300844 0.30197304 -4.066355 114 76 89
-0.55874854 0.2496286 -3.368486 101 71 97
-0.48633963 -0.20418444 2.7673957 92 68 92
-0.5576915 0.2500971 -3.3767018 88 56 79
-0.5543581 0.30298445 -4.097906 80 42 55
-0.4995237 -0.14201157 1.9378453 56 42 55
-0.5001971 -0.14331959 1.9569609 115 88 97
-0.4945154 -0.8250064 11.273576 90 44 57
-0.4825667 -0.91367453 12.519157 122 78 91
-0.49915645 -0.14721186 2.0214953 132 104 116
-0.46168548 -1.3114383 17.994928 125 84 102
-0.49224833 -0.8426049 11.567814 133 89 104
-0.5108693 -0.09850476 1.3569804 110 85 107
-0.45888767 -0.51802576 7.1988697 132 90 102
-0.4914083 -0.7449251 10.260484 108 65 72
-0.5003892 -0.13728401 1.9064435 128 117 133
-0.502018 -0.13047738 1.8150644 87 59 81
-0.500218 -0.13773267 1.9163425 99 89 113
-0.5005767 -0.1388151 1.9337987 118 110 131
-0.49812797 -0.14998376 2.0876176 132 102 110
-0.56233513 0.2525626 -3.5119693 84 49 69
-0.50725245 -0.11085813 1.556971 146 121 140
-0.4333731 -1.2190351 17.133608 120 82 95
-0.43551797 -1.0943676 15.476107 105 77 89
-0.50595456 -0.115170054 1.6289754 110 83 100
-0.5544874 0.3804798 -5.3630576 70 38 51
-0.49815446 -0.14574441 2.0627444 109 78 94
-0.49622822 -0.1524586 2.1649768 74 50 64
-0.550311 0.31483588 -4.458263 126 71 94
-0.5078676 -0.107381664 1.5299646 132 105 120
-0.50268227 -0.12841539 1.8294618 132 111 126
-0.49495286 -0.15799002 2.2517729 125 101 115
-0.4880079 -0.18420972 2.636107 118 101 119
-0.50243104 -0.12741728 1.8261158 86 62 78
-0.51407534 0.12635887 -1.7124654 108 82 111
-0.4781018 -0.86528605 12.409497 78 38 47
-0.5505379 0.2890494 -4.135533 60 30 42
-0.4952644 -0.1569973 2.2568686 128 103 125
-0.48780018 0.12392734 -1.7036016 94 78 104
-0.5378331 0.11501842 -1.5856915 83 74 101
-0.49541208 -0.15591417 2.2464457 106 77 105
-0.49868023 -0.14371128 2.0742776 113 79 95
-0.55034107 0.3102746 -4.4585476 58 32 43
-0.49478915 -0.15468419 2.2363012 126 101 120
-0.51195186 -0.08949027 1.2986645 117 102 123
-0.51031756 -0.09491743 1.3848181 104 71 90
-0.5027455 -0.12287888 1.7919368 118 105 123
-0.50230145 -0.124320455 1.8160942 76 61 80
-0.5090084 -0.09978727 1.4616671 116 82 98
-0.5030689 -0.12172567 1.7907658 64 40 62
-0.4959941 -0.15009606 2.2056506 128 110 134
-0.48411697 -0.7678255 11.298654 126 83 93
-0.5006529 -0.12998801 1.9286693 113 75 96
-0.50710535 -0.10513985 1.5634656 107 78 98
-0.5026687 -0.12178288 1.8126943 95 83 97
-0.42026767 -1.3996848 20.83315 136 92 109
-0.55414325 0.2956441 -4.3870487 105 63 75
-0.41930094 -1.3904083 20.748543 129 83 94
-0.6788744 1.4006497 -20.783445 88 49 68
-0.51003844 -0.09333897 1.3950263 105 74 90
-0.5094206 -0.09589013 1.4359864 107 74 85
-0.49573305 -0.14671782 2.1974711 96 78 102
-0.5048571 -0.11208744 1.6823019 84 71 89
-0.48049936 -0.9139721 13.710895 133 83 95
-0.50250113 -0.11997206 1.8050381 58 39 58
-0.5507708 0.1836192 -2.746901 110 50 60
-0.50743306 -0.10274217 1.5489132 104 73 91
-0.50481856 -0.11159043 1.6841956 110 92 108
-0.50091696 -0.12772456 1.9324181 102 64 85
-0.41069004 -1.26114 19.04657 138 86 98
-0.5052358 -0.11081311 1.6774683 67 55 69
-0.5115357 -0.08510006 1.2916787 75 59 86
-0.5122262 -0.08199423 1.2455851 54 49 69
-0.5121735 -0.08305769 1.2655227 79 64 95
-0.511432 -0.08682648 1.3228661 100 85 118
-0.49470195 -0.1509703 2.2958903 105 76 98
-0.51248354 -0.08232184 1.2561771 74 61 78
-0.5103858 -0.08950939 1.3662121 73 60 86
-0.51756454 -0.063795984 1.0055376 115 106 127
-0.5033228 -0.2671242 4.0732846 82 51 59
-0.5512946 0.18211906 -2.7643266 89 35 48
-0.5107697 -0.08888146 1.3606559 118 114 141
-0.5011231 -0.26814073 4.0910287 62 34 48
-0.51067203 -0.087530784 1.3409889 91 76 107
-0.5107729 -0.08766597 1.3450947 85 70 101
-0.55823565 0.114572085 -1.5698308 92 76 102
-0.5258078 -0.1209104 1.864464 102 83 102
-0.49723694 -0.1392907 2.1456585 111 79 102
-0.4850849 -0.6873969 10.582 113 67 80
-0.5004086 -0.12725604 1.9632974 102 71 89
-0.51007485 -0.08939704 1.3937386 103 83 111
-0.51167464 -0.08405626 1.3148738 98 75 101
-0.49902177 -0.13104352 2.0509698 100 66 83
-0.5529217 0.2675202 -4.1753573 109 56 76
-0.55423886 0.26653507 -4.1623826 88 39 58
-0.5519562 0.17497002 -2.732952 76 41 48
-0.5175532 -0.121567175 1.9508344 74 55 75
-0.6656081 1.305243 -20.602592 118 75 85
-0.6926063 0.6439101 -10.51806 77 35 47
-0.4955726 -0.13734816 2.2073174 95 78 96
-0.49926394 -0.12485276 2.0130782 97 81 107
-0.49295923 -0.14772104 2.392046 76 57 77
-0.60778755 0.5929338 -9.581535 73 36 53
-0.49310908 -0.14470974 2.3515282 101 78 106
-0.49982244 -0.12415793 2.0211937 61 49 73
-0.4990865 -0.12434355 2.0241425 67 49 73
-0.4739116 0.119823635 -1.8782151 121 88 107
-0.49934942 -0.12231974 2.0075698 114 101 119
-0.4850564 -0.27297992 4.486857 103 63 71
-0.49971372 -0.121626176 2.0061073 80 60 85
-0.48588842 -0.27214012 4.478923 97 58 63
-0.52152187 0.114231035 -1.5484134 108 84 108
-0.48359686 0.12459193 -1.6189125 97 70 89
-0.6236789 0.7333047 -12.307754 98 46 59
-0.50018317 -0.116144985 1.9764252 113 100 118
-0.50009674 -0.11565369 1.9817609 88 70 94
-0.5123706 -0.072838254 1.2536743 61 51 78
-0.5107063 -0.079558335 1.371067 115 93 106
-0.51255393 -0.07329215 1.2732995 128 110 136
-0.5359725 -0.0877399 1.5488924 113 95 109
-0.50993764 -0.080058955 1.3989017 99 69 93
-0.5349599 -0.08704613 1.5411102 72 62 86
-0.5085823 -0.0854636 1.4994141 140 122 138
-0.50838476 -0.085001074 1.4972321 100 75 96
-0.64830846 0.8763524 -15.354638 87 46 60
-0.5421993 -0.09231861 1.6515359 119 91 113
-0.5102742 -0.079830654 1.4124516 131 110 125
-0.5009378 -0.11153453 1.9709502 115 98 116
-0.65597105 0.9621239 -17.02479 73 31 43
-0.60151094 0.20280114 -3.0710654 113 80 99
-0.64720315 1.0536163 -18.862036 85 43 55
-0.50370026 -0.099085055 1.788391 115 93 114
-0.531739 0.14067768 -2.4258955 113 79 104
-0.6640637 1.1334169 -20.345947 65 29 41
-0.51137143 -0.07306134 1.3251635 75 63 85
-0.49479115 -0.22976048 4.1996903 103 50 66
-0.49070567 -0.13982603 2.5606122 51 42 61
-0.510597 -0.07651551 1.4090993 105 78 95
-0.48689455 0.0017100632 0.071076795 72 34 47
-0.5167443 -0.055269826 1.0313458 111 86 107
-0.49619323 -0.11782808 2.188922 122 102 114
-0.48189735 -0.0325979 0.7108427 74 34 42
-0.57400435 0.19560014 -3.6405241 111 68 75
-0.5081175 -0.08095632 1.5191121 92 65 80
-0.42860755 -0.41841307 7.916414 79 38 56
-0.4819463 -0.032206193 0.7045675 90 47 57
-0.5003699 -0.21368039 4.0491524 87 47 58
-0.49682647 -0.11415518 2.1710236 129 112 131
-0.4968267 -0.11398057 2.1709447 129 112 130
-0.5576311 0.4736359 -8.915823 119 79 87
-0.4663178 0.1110938 -2.0090268 83 69 94
-0.5562926 0.46367818 -8.745793 89 54 60
-0.51119643 -0.07073032 1.3617839 116 82 98
-0.4756742 -0.29338202 5.648821 75 35 44
-0.4962357 -0.11312471 2.1855907 141 124 140
-0.5738914 0.18631727 -3.6343248 120 80 91
-0.5328376 0.11013318 -1.4540497 101 69 93
-0.35863483 -0.97161096 18.906809 75 33 47
-0.49388206 -0.21771574 4.2304387 106 53 63
-0.50601935 -0.085133225 1.6800689 118 89 111
-0.5017618 -0.09902714 1.9602448 112 84 106
-0.5590818 0.07428539 -1.4646087 91 73 97
-0.41079864 -0.5245523 10.568124 116 75 81
-0.49165463 -0.21061017 4.224292 95 54 60
-0.4975642 -0.10760571 2.1707036 87 64 82
-0.49747083 -0.10754044 2.1772685 74 52 73
-0.51181585 -0.06509244 1.3250988 72 54 78
-0.51682276 -0.050181348 1.030013 94 82 106
-0.5161104 -0.051897015 1.0655035 101 89 113
-0.5161751 -0.05232819 1.0752901 96 82 108
-0.511957 -0.06390013 1.3131543 97 78 106
-0.5068661 -0.08042834 1.6511472 134 102 115
-0.5101573 -0.06798941 1.3995152 93 81 93
-0.5931204 0.3766388 -7.702159 109 72 80
-0.49027562 -0.20375443 4.199733 105 58 68
-0.46774113 -0.48194784 9.909803 111 57 71
-0.44093713 -0.65453184 13.505617 108 61 81
-0.42455652 -0.7413051 15.327037 111 63 79
-0.5082967 -0.07270701 1.5114658 109 82 99
-0.49825013 -0.16962485 3.5381286 62 30 41
-0.49696475 -0.17006569 3.547184 58 22 32
-0.5572501 0.06590266 -1.3640797 117 91 116
-0.48767102 -0.21106748 4.407038 72 40 45
-0.47761407 -0.2388827 4.9963927 72 34 45
-0.47667494 -0.23887558 5.0043764 54 22 33
-0.35745028 -0.97466314 20.40918 133 83 92
-0.50303483 -0.08720951 1.8428352 83 60 76
-0.51618147 -0.050134484 1.0640641 139 124 147
-0.51338 -0.05850344 1.2484007 137 115 128
-0.4969508 -0.10403865 2.2134027 117 100 116
-0.5004126 -0.09382282 2.0030458 86 63 81
-0.49874243 -0.09570627 2.0437074 68 53 72
-0.499919 -0.09391552 2.012746 120 95 114
-0.51199925 -0.060696434 1.3047745 135 114 131
-0.49872112 -0.15449959 3.3208103 53 27 38
-0.49756575 -0.15969166 3.427987 109 64 69
-0.48412678 -0.20865045 4.4771805 75 33 43
-0.50000477 -0.09320001 2.007243 101 81 109
-0.49665493 -0.41543517 8.944249 95 55 63
-0.4956245 -0.10548846 2.2809043 121 102 122
-0.4997885 -0.093250796 2.0210276 127 114 142
-0.571972 0.2664763 -5.7417173 105 53 65
-0.5108254 -0.06361035 1.3834751 101 77 99
-0.4965528 -0.104633145 2.2700655 108 85 103
-0.49249738 -0.114343286 2.4855635 79 60 80
-0.5758809 0.13540004 -2.6559722 110 75 95
-0.5165206 -0.04741886 1.0498719 92 78 103
-0.5335487 -0.04844712 1.073375 103 88 111
-0.5042181 -0.080810234 1.7925211 115 79 89
-0.51422733 -0.05328056 1.2007821 116 87 109
-0.5006122 -0.14029281 3.1734061 67 30 37
-0.5020479 -0.08454133 1.9206355 134 113 132
-0.66709876 0.9063921 -20.497969 144 128 105
-0.5614456 0.2685025 -6.0712495 95 63 74
-0.50263107 -0.08137483 1.8660753 135 108 123
-0.50304693 -0.08027244 1.860115 135 111 127
-0.5131253 -0.054411367 1.2690183 134 110 126
-0.55846447 0.06445629 -1.4826454 75 62 82
-0.50786984 -0.066708006 1.5640699 114 88 97
-0.50979936 -0.06084468 1.4593982 105 82 100
-0.5027987 -0.12791573 3.0610988 77 37 46
-0.556276 0.055739455 -1.3345518 187 201 238
-0.502861 -0.12622136 3.0482912 79 43 55
-0.5556376 0.055132437 -1.3330234 166 176 211
-0.51415944 -0.048554257 1.1816312 104 91 108
-0.50892156 -0.060115926 1.4752349 60 56 73
-0.50959027 -0.059481174 1.4679295 108 97 114
-0.5136698 -0.04772897 1.1844531 53 54 75
-0.5140928 -0.047639832 1.1834451 77 73 96
-0.5559689 0.054026064 -1.3337992 163 169 203
-0.5137863 -0.047771826 1.1916826 45 32 52
-0.50291795 -0.12209225 3.035186 72 34 45
-0.5559972 0.05383751 -1.337354 130 117 147
-0.5566205 0.053486064 -1.3353719 164 167 200
-0.50881696 -0.06121585 1.5445989 107 89 101
-0.6406282 0.5715678 -14.483091 155 134 113
-0.50445735 -0.06896066 1.7461653 140 116 130
-0.6742065 0.80834067 -20.42327 179 164 145
-0.504136 -0.071790025 1.8322827 133 131 145
-0.504403 -0.069808714 1.7816736 130 108 121
-0.50343406 -0.07150306 1.8369956 90 78 100
-0.62634826 0.51735026 -13.330955 186 171 152
-0.6428528 0.5460291 -14.186297 209 197 173
-0.63690895 0.55236256 -14.366048 219 207 183
-0.5134569 -0.04873785 1.2653098 143 119 141
-0.5049612 -0.0670248 1.7349147 107 89 101
-0.532738 -0.07527689 1.9003849 124 107 123
-0.45781472 -0.42487508 10.959407 75 35 44
-0.504799 -0.06853719 1.7762909 79 55 68
-0.6527043 0.5854453 -15.369064 197 184 165
-0.5146189 -0.04512013 1.1797377 110 79 95
-0.5124336 -0.050621048 1.3267059 107 83 107
-0.50380373 -0.06999169 1.8334849 96 74 95
-0.63383585 0.52296317 -13.810545 204 193 175
-0.5113004 -0.052426256 1.3915839 127 108 128
-0.55687034 0.0517651 -1.3679527 107 81 106
-0.6223252 0.61045796 -16.501657 173 157 141
-0.6200892 0.60948443 -16.598223 157 141 126
-0.6178979 0.585156 -15.934732 198 185 166
-0.5121002 -0.047728892 1.315964 117 99 113
-0.5075761 -0.058063716 1.602445 106 78 93
-0.4646638 -0.33577845 9.247767 65 29 33
-0.6163467 0.6000979 -16.500402 192 179 160
-0.5058219 -0.062400736 1.7356899 103 72 87
-0.41977748 -0.5252224 14.566617 71 31 39
-0.61189663 0.588319 -16.298923 166 150 134
-0.4840112 -0.15594922 4.346121 67 34 41
-0.51698685 -0.03752024 1.0547023 99 81 105
-0.5142266 -0.044160146 1.2417241 79 54 73
-0.51356196 -0.044173155 1.2433741 90 65 86
-0.51421833 -0.042218998 1.1906813 70 52 74
-0.52890754 -0.08090972 2.2783751 114 53 61
-0.50385356 -0.10872878 3.0541632 86 40 51
-0.61300445 0.58852595 -16.44715 201 190 170
-0.5160778 -0.037789203 1.0742806 83 70 100
-0.46684113 -0.20682587 5.866807 69 30 35
-0.469086 -0.20569716 5.841558 53 22 30
-0.5063929 -0.058557555 1.689431 117 90 99
-0.5041044 -0.061248243 1.7648623 92 80 94
-0.60457087 0.5723568 -16.117245 210 202 179
-0.512303 -0.04548094 1.3164881 109 87 110
-0.49182233 -0.1344126 3.87877 78 37 51
-0.49039605 -0.134635 3.889416 94 44 53
-0.6019967 0.5452342 -15.716812 161 145 129
-0.507504 -0.054588664 1.5931289 112 100 122
-0.5075061 -0.05549703 1.6188745 64 46 62
-0.6096749 0.61112225 -17.323421 160 144 121
-0.5062291 -0.05707492 1.6687384 69 55 70
-0.48943496 -0.13918972 4.054882 83 42 56
-0.5129454 -0.04405223 1.29524 137 113 127
-0.50761336 -0.05495178 1.6136255 99 86 103
-0.51391584 -0.041595962 1.2270199 113 94 116
-0.50757515 -0.054440897 1.602446 78 63 84
-0.50995916 -0.04886931 1.443403 112 103 124
-0.6181271 0.61410326 -17.622202 131 108 90
-0.60063607 0.54271 -15.9313545 155 134 117
-0.5102696 -0.048842706 1.4502306 99 92 110
-0.50656575 -0.056287386 1.665848 111 99 119
-0.5039957 -0.10288388 3.0206468 74 35 53
-0.5044155 -0.10201306 3.0442061 87 40 50
-0.5161621 -0.03553928 1.0688149 64 59 79
-0.51618326 -0.035616875 1.0720783 71 56 77
-0.50692344 -0.054061003 1.6207577 59 46 66
-0.5180479 -0.03312819 1.0006799 108 84 108
-0.50688815 -0.054397754 1.6357948 64 46 68
-0.5063758 -0.05514671 1.6612942 73 48 70
-0.51401776 -0.040463917 1.2240869 105 83 106
-0.5142368 -0.039961994 1.2120676 102 83 103
-0.6176834 0.5917584 -17.531628 126 99 78
-0.62663484 0.5565611 -16.298426 156 138 118
-0.49038094 -0.12868658 3.889093 92 46 56
-0.5056713 -0.055868506 1.6972497 134 117 135
-0.48691562 -0.13979892 4.2355328 91 45 55
-0.5062822 -0.055730592 1.6951618 137 116 135
-0.50985503 -0.047144007 1.4475489 72 58 73
-0.5490799 0.06504913 -1.9629868 103 41 54
-0.5064776 -0.055265617 1.6999606 136 114 127
-0.6156899 0.5253491 -15.652669 174 157 141
-0.62851274 0.5639032 -16.90005 127 101 84
-0.61801726 0.33809412 -10.439483 147 124 116
-0.506418 -0.053131007 1.6733353 44 40 57
-0.5063443 -0.053195313 1.6771184 40 32 47
-0.61342645 0.5224034 -16.090185 167 147 123
-0.5066665 -0.051577907 1.6331581 121 103 125
-0.49049073 -0.12252272 3.867973 78 35 44
-0.59162337 0.4767586 -14.990963 172 155 135
-0.48239055 -0.14485215 4.5978174 79 36 45
-0.50968045 -0.045505844 1.4545401 52 39 57
-0.48675033 -0.13411416 4.260405 73 35 48
-0.61216927 0.33465573 -10.590014 183 171 149
-0.6084624 0.31961286 -10.112398 149 130 113
-0.47755188 0.1373776 -4.2634835 93 54 73
-0.5686651 0.44541776 -14.268626 146 127 110
-0.6073624 0.31150585 -9.867185 195 178 160
-0.49651316 -0.105566904 3.378797 124 77 87
-0.49705714 -0.10187786 3.2858894 85 42 51
-0.59485775 0.4706704 -15.058365 168 151 133
-0.60825104 0.31027627 -9.939395 156 137 122
-0.45221174 -0.33597362 10.823056 90 47 64
-0.5041847 -0.09185973 2.9780684 93 46 54
-0.4829761 -0.14334826 4.6343913 93 52 58
-0.49705744 -0.10147821 3.2854743 65 29 39
-0.48124433 -0.14363942 4.64948 108 63 68
-0.512003 -0.041270077 1.3496232 89 68 85
-0.5141927 -0.03668658 1.207834 97 72 93
-0.4911886 -0.11778335 3.862559 92 46 57
-0.55589455 0.04393377 -1.3318884 147 158 190
-0.5663848 0.095330544 -2.874703 75 38 46
-0.51009995 -0.043423485 1.4378886 94 76 90
-0.5093293 -0.08566518 2.8389118 95 44 51
-0.5153485 -0.03391837 1.1370536 118 104 121
-0.44835556 -0.35065818 11.656047 90 40 49
-0.5878695 0.42439064 -14.03227 125 103 79
-0.46540475 -0.2696174 9.01617 102 55 63
-0.5904876 0.411252 -13.685436 134 111 93
-0.59444386 0.27638462 -9.209661 127 103 103
-0.5127474 -0.038567435 1.3018924 93 72 91
-0.5862198 0.41388088 -13.791285 121 96 76
-0.59032667 0.27857605 -9.295395 162 149 143
-0.5121028 -0.039633244 1.3383812 139 125 142
-0.46622536 -0.2741193 9.2136 69 28 36
-0.51551735 -0.033118498 1.128412 110 93 112
-0.5113912 -0.040399347 1.3715615 112 95 113
-0.4917726 -0.11133855 3.7606046 86 45 61
-0.4515004 -0.31294125 10.554406 53 21 32
-0.45393616 -0.32196355 10.858035 62 27 34
-0.5144627 -0.035184506 1.2003096 120 103 119
-0.6204068 0.40745252 -13.4339 137 119 97
-0.4010795 -0.5086249 17.250687 67 27 35
-0.5055191 -0.08491318 2.9114137 73 39 53
-0.56466377 0.08310063 -2.8198957 113 66 74
-0.509634 -0.043134596 1.486638 70 52 64
-0.50915676 -0.043372035 1.4963157 103 87 100
-0.51535016 -0.032763556 1.1370589 59 47 67
-0.5151481 -0.03291436 1.1420876 116 99 118
-0.51372033 -0.035593078 1.2329485 69 47 60
-0.54297394 0.057498198 -1.9589816 77 39 50
-0.51511955 -0.03304862 1.152197 122 109 127
-0.38904276 -0.5239039 18.174074 71 31 40
-0.5114556 -0.038885724 1.3611699 74 59 78
-0.57038283 0.09219971 -3.1805606 73 37 47
-0.5170304 -0.02975814 1.0470594 86 69 88
-0.5151578 -0.032824825 1.1560249 77 63 86
-0.51369166 -0.035345998 1.2458783 84 71 97
-0.59412277 0.34431303 -11.822244 156 140 117
-0.6019843 0.36125693 -12.455449 119 93 70
-0.5105929 -0.039190497 1.392402 69 46 66
-0.41422865 -0.42398468 14.990632 77 41 53
-0.51508725 -0.032193474 1.153057 80 64 91
-0.5097489 -0.041776814 1.514158 90 65 86
-0.5105993 -0.03911442 1.4276669 59 50 71
-0.56390786 0.07773025 -2.7960114 130 78 90
-0.51380795 -0.033574644 1.2363838 64 53 70
-0.51049614 -0.038911376 1.431722 99 77 98
-0.5058974 -0.07718585 2.8313255 75 39 53
-0.5655019 0.07838577 -2.8444538 84 44 55
-0.45725057 -0.30493262 10.474685 90 48 68
-0.5118702 -0.036297422 1.354439 96 79 98
-0.5105306 -0.03829537 1.4303716 69 55 72
-0.5105308 -0.03787241 1.430368 47 34 51
-0.49337587 -0.10131242 3.825304 134 78 87
-0.5141448 -0.031996682 1.2265043 111 96 115
-0.5140107 -0.032061014 1.2304418 106 99 117
-0.50586355 -0.07431411 2.8366246 77 30 38
-0.4937338 -0.105260305 4.0303383 111 56 75
-0.40078476 -0.15462403 4.9809656 76 33 40
-0.4937468 -0.0979987 3.7549193 81 36 43
-0.47940794 0.125922 -4.7153306 95 54 72
-0.6448567 0.33546683 -12.981355 101 75 58
-0.51234895 -0.034170162 1.3453957 83 60 76
-0.4549122 -0.29151064 10.560287 71 25 36
-0.637518 0.36266825 -14.100811 63 42 25
-0.5647703 0.072403654 -2.805179 77 39 52
-0.4318252 -0.34723634 13.620092 80 29 38
-0.6413102 0.38450122 -14.996327 119 97 60
-0.5154753 -0.028879235 1.1576843 105 82 98
-0.51039386 -0.03584771 1.4357966 93 73 85
-0.4993989 -0.07752108 3.165237 82 41 55
-0.51285076 -0.03141185 1.305753 99 86 96
-0.45989928 0.026617153 -1.0125833 181 189 235
-0.45966718 0.026395855 -1.0056639 175 190 231
-0.5083628 -0.06288103 2.6225 67 36 44
-0.49939442 -0.07584903 3.1654065 87 39 55
-0.49725634 -0.10053095 4.231835 102 51 60
-0.49725363 -0.0995591 4.2317753 82 34 46
-0.50868326 -0.059680704 2.562225 71 41 51
-0.6528457 0.38768598 -16.447624 108 82 57
-0.50835913 -0.061000098 2.6225097 118 69 75
-0.6562072 0.38917562 -16.788654 159 139 112
-0.5139142 -0.028091568 1.2334235 81 72 99
-0.5125479 -0.030241517 1.3232708 105 86 106
-0.511794 -0.03147023 1.3820375 100 83 102
-0.49918595 -0.09266424 4.0858626 136 81 87
-0.5080689 -0.058519028 2.5920284 66 31 38
-0.51281786 -0.029525163 1.3215073 92 68 90
-0.51348895 -0.028213251 1.2848741 100 73 90
-0.51275116 -0.029090675 1.3238014 135 112 128
-0.49619758 -0.09558882 4.314751 95 45 57
-0.5130304 -0.028190404 1.2860497 100 71 89
-0.5140504 -0.026478577 1.2178655 131 116 135
-0.55240923 0.23916651 -10.8891535 174 167 174
-0.5130876 -0.028467508 1.3197384 92 64 79
-0.51163584 -0.030568816 1.4148034 105 80 99
-0.55875176 0.2532291 -11.612771 197 192 188
-0.51509804 -0.024988707 1.1779153 91 74 93
-0.4836907 -0.354504 14.144721 75 30 37
-0.5136352 -0.026834646 1.2668765 99 75 89
-0.51289076 -0.027404565 1.2974808 96 68 83
-0.57199144 0.047240805 -1.4815853 131 114 133
-0.5794753 0.13535939 -6.329641 68 22 35
-0.5125329 -0.028399266 1.3548992 101 71 83
-0.5139899 -0.025958447 1.2433219 142 117 136
-0.5553799 0.24127921 -11.391668 203 197 181
-0.56246203 0.2657444 -12.617509 135 124 120
-0.49414602 -0.09230683 4.4495873 90 41 47
-0.55489516 0.23591733 -11.305442 171 162 145
-0.57786226 0.12806077 -6.145706 76 33 42
-0.51455563 -0.02453842 1.2035806 133 115 137
-0.5092988 -0.031642377 1.5460584 105 82 88
-0.5653148 0.28104585 -13.54564 183 173 163
-0.49920788 -0.06512511 3.193335 114 64 67
-0.55202174 0.22220951 -10.81021 114 103 101
-0.5117278 -0.027967125 1.3845699 139 122 140
-0.56231034 0.26509494 -12.997131 191 182 165
-0.50892 -0.030996256 1.5398165 51 35 46
-0.54596263 0.21103376 -10.425398 164 162 150
-0.56119835 0.25742632 -12.792741 147 138 123
-0.47458357 -0.10813156 5.4049273 102 59 68
-0.51560795 -0.023014002 1.1693949 94 78 104
-0.5614404 0.2644794 -13.272414 103 90 81
-0.55445284 0.22361875 -11.220756 100 90 91
-0.46962988 -0.115007564 5.8706336 57 22 29
-0.5105898 -0.027421327 1.4190031 101 89 103
-0.5404559 0.2043934 -10.462213 168 162 162
-0.47470233 0.023696674 -1.0994167 131 133 181
-0.57307905 0.2842576 -14.937215 159 147 133
-0.54944783 0.22577128 -11.841392 108 95 87
-0.5503603 0.23681802 -12.472297 137 127 115
-0.5352993 0.19310263 -10.169807 152 145 139
-0.538673 0.19178312 -10.09973 163 158 154
-0.5343368 0.18678935 -9.96038 188 182 170
-0.51249534 -0.041667677 2.2605278 67 34 45
-0.51536983 -0.020714018 1.1416621 119 102 120
-0.5159736 -0.020072343 1.1178937 121 100 115
-0.51266164 -0.024189273 1.3423914 95 82 89
-0.507195 -0.045158815 2.513541 65 23 27
-0.5421593 0.20403534 -11.207521 80 61 47
-0.5384361 0.18898419 -10.425515 89 76 60
-0.5086364 -0.027802967 1.5646698 96 82 97
-0.50936884 -0.026977526 1.531151 103 85 101
-0.57409257 0.09730171 -5.55903 99 53 63
-0.51118195 -0.024212187 1.4235301 109 85 98
-0.55302125 0.2327691 -13.510229 69 53 40
-0.5370247 0.16884002 -9.756144 84 77 85
-0.5377792 0.17667753 -10.27919 63 53 62
-0.537634 0.16419412 -9.530474 53 41 53
-0.5392809 0.18840505 -11.011883 78 64 64
-0.53955287 0.18261099 -10.648566 121 111 112
-0.5486085 0.20444751 -12.086459 82 67 62
-0.5410436 0.1866658 -10.959912 108 91 84
-0.5738393 0.09335329 -5.4809794 92 45 53
-0.5356649 0.1800913 -10.6480665 143 130 121
-0.53919816 0.17881587 -10.572002 153 143 133
-0.5485264 0.20324212 -12.070898 115 97 87
-0.39073563 -0.30025664 18.26559 98 46 58
-0.55694693 0.22704954 -13.803463 144 129 106
-0.51203394 -0.022129998 1.3732857 75 63 75
-0.5100204 -0.023966623 1.5133227 76 54 66
-0.5988325 0.11255682 -5.7266297 128 80 92
-0.56372005 0.107336156 -6.760884 176 162 151
-0.5745126 0.09875402 -5.5882697 103 52 69
-0.5117987 -0.021206187 1.3820462 75 52 68
-0.5709046 0.07868132 -5.0246673 96 51 71
-0.49358845 -0.05734884 3.7636757 81 32 36
-0.44781357 -0.17457952 11.622954 99 42 48
-0.56195396 0.10156273 -6.712933 135 119 106
-0.5894394 0.29527003 -19.556297 137 126 134
-0.59514236 0.29598203 -19.740644 71 60 66
-0.56297237 0.10076253 -6.694395 122 104 94
-0.46492976 -0.15798186 8.59741 83 36 44
-0.5172283 -0.014703303 1.0368248 95 82 108
-0.513877 -0.018019129 1.2595948 135 111 124
-0.46029562 -0.15333782 10.562739 70 24 35
-0.45307034 -0.15835828 10.90767 81 34 42
-0.4306866 -0.20631541 14.21553 68 25 35
-0.5615146 0.09602433 -6.5682 124 107 113
-0.5723549 0.07971528 -5.4479895 101 46 52
-0.5711631 0.07714572 -5.2578115 103 47 56
-0.51199293 -0.019360688 1.3665438 55 46 65
-0.492327 -0.055145293 3.870602 70 27 34
-0.40068445 -0.25203365 17.658539 95 52 59
-0.56120986 0.09533433 -6.6460915 188 182 170
-0.48696822 -0.060841024 4.315575 64 27 35
-0.5309961 0.11537651 -7.969589 122 100 79
-0.57413965 0.18935439 -13.31068 73 55 43
-0.570501 0.072151795 -5.0525384 65 19 32
-0.47375038 -0.029983936 2.3162146 101 77 65
-0.41536847 -0.1620615 11.741906 86 69 79
-0.39441517 -0.25221312 18.166069 72 33 38
-0.55652046 0.10275065 -7.429601 84 68 78
-0.5695595 0.065375455 -4.8449397 134 85 91
-0.3747495 -0.26393557 20.099672 53 20 29
-0.5176395 -0.03034404 2.3390727 126 81 102
-0.570841 0.06496968 -4.9150953 78 45 56
-0.5146741 -0.015596964 1.2352468 114 92 104
-0.50860476 -0.019498633 1.591143 112 91 106
-0.5195941 -0.028248833 2.3633175 112 64 86
-0.51343817 -0.014805742 1.2801112 105 83 95
-0.50740147 -0.018822826 1.6509241 73 52 69
-0.50406003 -0.031939153 2.7927442 122 67 70
-0.5136275 -0.014670032 1.3017303 90 77 87
-0.51316303 -0.014685198 1.302945 88 74 87
-0.50636697 -0.019484125 1.7204723 89 72 82
-0.50506055 -0.03176155 2.7870398 100 53 59
-0.50152016 -0.034047205 3.0596921 80 34 45
-0.5008563 -0.03419278 3.08288 72 29 39
-0.50196654 -0.033991598 3.0759196 64 24 35
-0.49234793 -0.041161817 3.8598335 85 43 57
-0.5128732 -0.013426612 1.2915299 79 65 88
-0.45683247 -0.114077225 10.901574 71 24 34
-0.4329192 -0.1440011 13.7214985 76 26 37
-0.52044433 -0.022206234 2.1874404 124 82 94
-0.54697883 0.05574116 -5.336331 76 29 37
-0.5511914 0.06006078 -4.8778057 78 25 35
-0.51429147 -0.012406243 1.2407979 88 80 103
-0.4377623 -0.13524956 13.226053 127 80 90
-0.51462317 -0.01212726 1.230844 76 68 89
-0.5773525 0.07236755 -7.1279583 68 29 34
-0.51876396 0.012572747 -1.7846255 114 87 104
-0.51377505 -0.011434178 1.2694917 100 97 116
-0.5134917 0.031468876 -3.3728263 93 46 64
-0.5675881 0.027891621 -2.9843857 91 43 59
-0.51471204 -0.010809461 1.234265 85 80 102
-0.513732 -0.011186574 1.2843192 104 99 122
-0.51465756 -0.010508451 1.229874 127 119 134
-0.50018406 0.041030977 -4.3921356 108 67 83
-0.51443905 -0.010417217 1.2304025 112 106 120
-0.52097106 -0.018251872 2.137672 145 92 108
-0.47179967 -0.076437786 8.8265085 95 47 63
-0.46843323 -0.07691574 8.88069 102 49 67
-0.51908743 -0.020280736 2.4004602 152 101 120
-0.5020592 0.04005089 -4.4362454 99 55 72
-0.513332 -0.010450866 1.304574 109 89 98
-0.5164246 -0.0087811705 1.1250517 131 151 212
-0.6259553 0.13615032 -16.693483 76 33 42
-0.50995225 -0.011748695 1.5163846 48 34 51
-0.54614747 0.05569076 -6.7165165 96 54 68
-0.5159706 -0.007399822 1.1457616 26 36 85
-0.51603276 -0.007234275 1.139479 162 187 251
-0.51025987 -0.009204134 1.5027413 89 77 87
-0.48642153 -0.049356543 7.866777 98 44 58
-0.40705925 -0.12472268 19.805431 108 53 72
-0.51630217 -0.006684851 1.1373464 63 77 148
-0.51597226 -0.006397 1.1457579 93 95 134
-0.49208972 -0.04544634 7.8225684 159 106 124
-0.513143 -0.006516862 1.2898566 92 79 97
-0.4934909 -0.038705394 7.8002105 86 31 37
-0.51316977 -0.005867136 1.317495 124 106 128
-0.51303625 -0.0058402037 1.3220757 126 113 133
-0.55527437 0.00703676 -1.3238026 175 195 232
-0.50122935 -0.0069145276 1.5879016 65 47 63
-0.42691195 -0.08741572 19.61006 144 93 108
-0.5141325 -0.0052232654 1.2458564 75 51 65
-0.50891453 -0.0066664256 1.5637847 59 51 66
-0.51330376 -0.0053214887 1.2985373 58 49 68
-0.51343817 -0.008670256 1.3386699 63 46 62
-0.51370937 -0.0046552676 1.2525263 76 55 74
-0.55819654 0.0049576946 -1.5136818 114 90 106
-0.54740757 0.0049935835 -1.5530413 99 71 86
-0.48525184 -0.016926559 6.397639 91 41 53
-0.45603102 -0.042811777 18.004229 146 94 107
-0.5097663 -0.015821902 7.358393 143 89 102
-0.5083571 -0.0030638804 7.2657113 115 60 81
-0.4685558 0.0012976034 -1.0292397 158 168 203
-0.50831556 -0.0024902255 7.1930327 108 59 81
-0.53744894 -0.0010894394 -9.344808 79 78 122
-0.53751427 -0.00075649604 -8.000619 141 148 194
-0.53688234 -0.0018735304 -9.922065 73 75 124
-0.55469257 0.00072770537 -1.3223693 175 195 230
-0.5348417 -0.003519068 -10.271191 122 124 165
-0.44687515 -0.0013069705 -2.875978 106 61 82
-0.4588501 -0.0010338476 -2.524908 94 51 70
-0.5365913 -0.01071082 -10.235964 141 145 183
-0.5067229 -0.0008985421 -1.8997709 112 71 87
-0.5331312 -0.011191011 -10.302721 129 116 146
-0.531899 -0.010920202 -10.019967 146 151 189
-0.506061 -0.0009758899 -1.9024241 75 43 54
-0.46594155 -0.0027032357 -2.35339 90 54 68
-0.5065146 -0.0017361699 -1.8912815 128 86 96
-0.43917698 -0.00432321 -3.1152244 81 38 57
-0.5058554 -0.0018143166 -1.8939118 96 65 71
-0.5554306 -0.0015583886 -1.3345549 73 58 87
-0.53906953 -0.0066534653 -4.238334 67 39 53
-0.46682423 -0.0035335312 -2.3407125 128 90 103
-0.5058384 -0.0022664058 -1.8786541 113 70 87
-0.5365516 -0.015308145 -8.070225 82 44 59
-0.46681073 -0.0043588006 -2.3279607 69 38 53
-0.5179112 0.04378957 19.094328 91 48 67
-0.43755582 -0.0066389916 -3.1602774 84 47 64
-0.4486412 -0.0061998167 -2.860489 89 48 64
-0.4744107 -0.0046255863 -2.111083 139 100 118
-0.5376539 -0.011868645 -4.8413224 95 61 75
-0.5141521 0.047675807 18.375446 134 88 101
-0.5261544 0.037216444 13.901691 110 64 75
-0.5359998 -0.025823304 -9.719937 90 46 59
-0.53845686 -0.017595528 -6.488354 94 49 69
-0.47408962 -0.0054962775 -2.1232364 110 66 91
-0.47404402 -0.0053946916 -2.1161454 118 73 96
-0.53606707 0.013754679 4.422315 130 80 89
-0.52513903 0.04551923 14.822581 98 48 60
-0.5355042 -0.019876426 -6.5675178 133 90 107
-0.5298769 -0.05113581 -16.912529 122 77 97
-0.53766227 -0.020030642 -6.535643 142 98 113
-0.5257789 -0.058028746 -18.078169 147 105 125
-0.5389655 -0.022587134 -6.694416 101 57 74
-0.5341457 0.02527637 5.9463797 112 63 84
-0.510997 0.005053568 2.0258625 82 63 69
-0.4446595 -0.012394963 -2.957439 100 57 76
-0.51819086 0.0056634573 1.0283092 109 104 127
-0.538271 -0.024521502 -4.7389455 105 62 81
-0.53621316 -0.029362896 -5.4993725 104 58 71
-0.45335898 -0.013516783 -2.6921315 73 39 53
-0.4918004 0.08402511 15.282419 89 45 60
-0.4474358 -0.0151057895 -2.8857677 104 63 71
-0.5379175 -0.036857035 -6.7088485 80 40 51
-0.45942813 -0.013411159 -2.5177183 87 40 60
-0.53790945 -0.02699139 -4.780936 125 83 97
-0.45631766 -0.014071188 -2.5877674 75 39 51
-0.4664166 -0.012724863 -2.321691 113 74 95
-0.517367 -0.11925784 -19.78612 87 50 67
-0.53780484 -0.030947883 -5.174276 95 51 66
-0.49598086 -0.0082232 -1.5807117 104 70 84
-0.5375052 -0.04036767 -6.5038238 89 45 60
-0.53687555 -0.025933443 -4.1857786 138 103 125
-0.48629442 0.0167708 2.474813 128 80 92
-0.5276156 -0.11221122 -17.174767 97 51 64
-0.5334177 -0.09504561 -14.769103 100 49 64
-0.5112647 -0.12272568 -18.511797 96 57 75
-0.49513707 -0.010468093 -1.629057 116 72 89
-0.5333851 0.055728238 8.136448 143 91 104
-0.53678256 0.026570294 3.8374286 87 48 66
-0.53177285 0.06684408 9.507917 111 60 79
-0.5370538 0.02146693 2.9686139 76 35 41
-0.52892274 0.10376922 14.175513 142 99 119
-0.53669 -0.021488786 -2.9393117 78 39 57
-0.5366543 0.024462985 3.154936 89 52 60
-0.53678846 0.027211517 3.537376 66 30 34
-0.5368305 0.023887217 3.0154345 78 35 45
-0.53541005 -0.03762144 -4.789546 79 41 56
-0.5540376 -0.009598967 -1.319616 172 156 166
-0.5362447 0.03664594 4.33436 106 59 77
-0.535514 0.03703628 4.3404903 113 66 84
-0.52875423 -0.11902314 -13.979925 107 56 73
-0.53580517 -0.04711311 -5.553533 114 71 88
-0.54058063 0.08642272 9.59902 101 50 67
-0.5364085 0.0202358 2.0747008 109 87 90
-0.51316243 0.013400533 1.3657117 45 32 49
-0.5128861 0.014421378 1.3676213 47 35 57
-0.5129988 0.014425524 1.3718863 39 28 45
-0.51467276 0.013480824 1.2615557 107 94 111
-0.513125 0.015202705 1.3347571 64 60 74
-0.51155156 0.017118966 1.4188379 78 74 89
-0.51046306 0.018227529 1.504946 80 78 91
-0.5123779 0.020023009 1.41403 60 39 54
-0.4853317 0.012789192 1.068843 113 103 128
-0.5287132 0.015617663 1.0823281 110 105 127
-0.4671121 -0.024878928 -1.4141437 85 49 63
-0.51545304 0.022230035 1.2077413 73 62 79
-0.46409985 -0.036570925 -1.5289602 101 59 73
-0.46352187 -0.036672797 -1.5306927 81 43 58
-0.4643004 -0.0378889 -1.5187576 89 54 74
-0.4643004 -0.03800701 -1.5187274 98 59 77
-0.46383187 -0.03908197 -1.529889 93 55 70
-0.46352798 -0.039618157 -1.5288774 93 54 73
-0.491902 -0.08901868 -3.3281827 88 46 58
-0.42003325 -0.061942957 -2.312355 85 53 68
-0.4914175 0.03161676 1.3444413 88 66 78
-0.5039249 0.0696504 2.517577 98 66 69
-0.5173237 0.03397983 1.0967449 78 73 96
-0.4822827 -0.06811004 -1.9778273 98 58 82
-0.4818489 -0.068111844 -1.9730695 106 68 93
-0.4573462 -0.096312836 -2.727977 97 53 68
-0.5437151 0.08056653 1.9227715 108 76 81
-0.55167526 0.04664361 1.1064655 74 87 80
-0.26883337 -0.22771311 -4.656774 124 82 104
-0.54402846 0.0655974 1.2779351 96 115 96
-0.18256178 -0.36667666 -6.23969 61 41 52
