ply
format ascii 1.0
element vertex 322
property float x
property float y
property float z
property uchar red
property uchar green
property uchar blue
end_header
0 0 0 255 0 0
-2.7188172 1.0839447 -13.186452 86 63 81
-2.1613812 -0.18006139 8.47543 100 73 88
-2.301566 -0.05626581 6.833004 139 124 145
-2.6923769 1.0534136 -12.961821 114 96 112
-2.3428066 -0.011387431 6.0153475 94 71 91
-3.7693 1.0728934 -10.240435 72 60 84
-3.380738 1.0446211 -10.936244 117 101 128
-2.8835058 1.06934 -12.8478565 103 84 112
-2.8843837 1.0694225 -12.89249 133 115 137
-3.6162279 1.0520797 -10.422001 74 59 90
-3.5192392 1.0497948 -10.686936 72 50 71
-3.464637 1.0450827 -10.774202 91 67 91
-2.146647 -0.25714597 9.812166 104 85 104
-2.3848858 -0.2038958 9.649374 93 75 99
-3.1028073 1.0433178 -12.005679 105 74 90
-4.4050093 1.120014 -9.536098 86 78 99
-3.2250783 1.0315988 -11.436466 81 61 86
-1.9112992 1.1216918 -17.281908 122 92 118
-1.9464083 1.0860351 -16.527828 89 64 93
-3.8421645 1.059306 -10.181941 92 77 100
-2.7952304 1.0394623 -12.954812 95 66 86
-5.0843387 1.2254949 -9.650385 82 87 117
-3.7453885 1.0437938 -10.32923 93 71 92
-3.5783029 1.0295798 -10.610434 77 62 83
-2.8954237 1.0489156 -13.026793 120 93 110
-2.3089554 -0.23639289 10.720326 112 93 113
-4.7937517 1.1598239 -9.626679 124 102 123
-3.602076 1.0250974 -10.572686 65 50 73
-2.330478 1.0849152 -16.004559 84 66 90
-2.2196789 0.07347419 4.2646112 91 70 87
-1.6341639 0.1431806 0.8857092 132 154 195
-4.771032 1.161099 -9.729871 95 67 90
-1.7775105 0.11964032 1.527278 122 110 130
-3.5528748 1.0179609 -10.672569 106 83 109
-4.816708 1.1611618 -9.6672325 85 64 81
-2.3728049 1.0716442 -15.755819 103 75 98
-5.0785728 1.2040187 -9.657347 136 151 184
-2.280543 1.0932491 -16.525236 133 106 125
-1.9837118 0.11141567 2.408791 45 37 52
-3.40769 1.0047113 -10.964903 128 111 127
-2.2415473 -0.046296734 6.533752 101 76 97
-2.2203374 1.0719963 -16.454409 125 96 116
-2.0666442 0.09910501 3.0360181 107 78 98
-3.110639 1.0137244 -12.137343 79 62 81
-1.9836679 0.103951596 2.3678207 126 113 131
-2.2842329 1.0447395 -15.7640915 98 79 99
-3.698603 1.0142549 -10.430158 112 84 107
-2.1360543 0.076438926 3.7503498 80 50 58
-3.6971202 1.0104246 -10.436309 100 75 96
-2.1837513 1.0901011 -17.158531 136 108 131
-2.4126046 -0.18379854 9.684607 80 59 78
-2.3696938 -0.19670837 9.552807 82 57 78
-2.3291054 -0.38004774 12.50515 104 50 63
-1.8204678 0.11519005 1.6500582 57 48 69
-4.495349 1.0830666 -9.695304 123 100 120
-1.9185332 0.09719255 2.1913593 119 106 126
-4.3843126 1.0571208 -9.840353 112 99 119
-4.3531857 1.0515695 -9.8546715 128 112 125
-2.6221502 0.9925603 -14.389592 105 80 102
-4.3429966 1.0499127 -9.859937 125 108 127
-1.6383297 0.13304624 0.89637095 116 133 177
-2.6170225 -0.25563532 12.055344 58 30 42
-1.8054559 0.11610699 1.6020575 91 73 97
-4.114227 1.0167667 -9.972186 107 82 101
-2.686299 0.980279 -13.96407 103 75 98
-2.5653996 1.0010383 -14.882281 120 102 124
-3.8306663 0.9853119 -10.261635 101 76 98
-2.654461 0.9826553 -14.198691 118 89 109
-2.5662987 0.99856347 -14.86013 100 72 94
-2.5305817 1.0027926 -15.173216 54 34 43
-2.566733 0.99325526 -14.923335 106 80 107
-2.5287497 1.0003684 -15.250969 106 82 96
-2.680867 0.9710311 -14.072704 116 82 96
-2.4043522 1.1764164 -18.81697 79 38 46
-2.6383595 0.9742169 -14.43391 93 63 87
-1.6960939 0.11531347 1.175654 133 112 131
-2.3098893 -0.12005204 7.453325 126 102 116
-3.4554331 0.94110626 -10.964075 103 79 101
-4.615951 1.0507505 -9.76553 122 105 124
-2.7226448 0.9488329 -13.898381 131 103 117
-2.1275308 0.051533163 3.7402608 106 75 90
-4.619415 1.0461413 -9.753181 126 107 126
-2.3629994 -0.06596367 8.455526 134 107 122
-2.5191846 -0.13809893 10.752323 106 77 99
-2.1615076 0.054215033 3.8501112 109 83 92
-1.7243224 0.08839005 1.3390954 97 79 101
-2.4038048 -0.08742598 9.132639 111 83 98
-2.2100432 0.043752026 4.235176 91 79 103
-2.41299 -0.09312768 9.287863 111 79 94
-2.913735 -0.38419843 18.12355 106 65 71
-1.730335 1.2015917 -22.824755 75 35 46
-3.2422776 0.9057536 -11.542119 112 81 97
-3.1382911 0.9076407 -11.932844 103 65 80
-3.4147913 0.90424114 -11.0576 58 34 47
-3.0984533 0.91075593 -12.271042 97 78 100
-2.3675778 -0.2891283 11.214953 51 33 45
-3.3627315 0.8978497 -11.20161 97 68 88
-2.9126256 0.8953969 -12.881158 138 116 129
-2.8055415 0.90445817 -13.497546 86 65 84
-2.8134902 0.9039137 -13.469506 81 67 90
-1.6435953 0.14065525 0.900847 149 166 209
-1.6421854 0.14049785 0.8949978 135 154 196
-2.619715 1.0375594 -17.07553 69 34 41
-3.2405012 0.89393145 -11.701154 94 69 91
-2.5090377 -0.08019604 9.393629 91 40 49
-2.9528742 0.8826578 -12.694824 102 74 96
-2.9061286 0.8855487 -12.939503 113 85 99
-2.9570596 0.88146806 -12.675624 124 105 125
-2.8112519 0.89316165 -13.515193 138 110 125
-2.5217826 -0.08258666 9.4848995 146 90 101
-4.1925135 0.9419952 -9.897609 108 90 104
-2.5409868 -0.09763631 9.9272175 117 66 75
-1.8031603 1.1564893 -23.695755 151 99 112
-1.7154864 0.104284376 1.2805663 91 73 97
-1.6426427 0.13548107 0.89055544 142 161 201
-1.917772 1.1014171 -22.310421 145 92 102
-1.3512278 0.54786646 -9.301403 68 31 38
-3.2525892 0.87154526 -11.719304 134 116 138
-2.1962237 -0.17597385 11.876457 90 46 59
-4.747319 0.99691767 -9.856233 130 102 124
-5.234663 1.066172 -9.658308 126 137 182
-5.23966 1.0661532 -9.656133 97 110 154
-5.0315914 1.0303708 -9.703333 83 74 103
-1.6463566 0.13061833 0.9002201 137 149 187
-4.9207582 0.9924181 -9.707636 135 108 127
-2.386628 -0.013072347 6.055682 55 48 66
-2.2476544 -0.05062569 6.4756217 90 76 99
-2.1224833 0.059058603 3.4814858 100 87 107
-1.7337707 0.09802849 1.2020881 84 65 84
-1.6460115 0.09905397 0.88439655 98 103 141
-4.3360057 0.8898149 -9.865383 115 93 105
-3.029109 0.79994583 -12.361295 101 74 89
-1.0464798 1.5183138 -39.331722 105 66 71
0.21166284 2.4723775 -70.04698 122 84 83
-3.9035926 0.8364614 -10.197029 76 56 68
0.59383863 2.7669146 -79.55352 122 88 89
0.5212008 2.734421 -78.481766 135 111 101
-4.6355777 0.9129533 -9.743637 100 71 89
1.2835869 3.254928 -95.98421 99 78 77
1.7986884 3.6563323 -109.165886 46 19 24
-3.0307727 0.7888973 -12.345914 116 87 107
-1.8703809 0.08811898 1.7719476 112 99 119
-2.910785 -0.33200854 16.201862 69 37 50
-1.9130571 0.08427954 2.0153584 85 62 88
1.6983457 3.5503306 -106.36476 122 95 84
-3.3129032 0.7858704 -11.292631 138 113 132
2.1211786 3.8888195 -117.466774 70 40 40
3.7888005 5.194603 -159.94395 149 132 116
7.558904 8.085667 -254.14812 125 102 88
2.9093761 4.4959154 -137.66751 141 125 102
-2.6861296 0.79536337 -14.169856 57 24 31
-2.6724741 0.7964883 -14.29039 68 36 47
-2.4964294 -0.06303135 9.1272335 75 34 40
-2.6966784 0.7894276 -14.086318 66 31 37
-2.3423436 0.0020791544 6.7653217 67 49 71
-2.2540793 0.02945891 5.573878 92 76 102
-2.5211143 -0.07484538 9.60427 65 39 52
-2.4497766 -0.041568693 8.376334 82 36 46
-2.5428283 -0.08645142 10.017566 68 35 44
-1.647014 0.11351311 0.8742458 88 97 136
-1.6514611 0.113076575 0.8948273 124 113 145
-2.531754 -0.08096326 9.841591 73 35 48
-1.4975706 1.1903569 -30.846693 62 22 30
-2.5106406 -0.06940639 9.435829 68 38 50
-1.5439241 1.1587738 -29.836517 84 44 52
-2.1815925 0.8868557 -19.561663 90 43 51
-4.680784 -1.4401295 57.685566 64 23 31
-2.1800027 0.88519484 -19.538391 75 32 41
-3.4263747 -0.5534948 27.075975 55 22 29
-4.5093956 -1.3155849 53.572598 58 28 40
-3.623688 -0.68120134 31.612534 64 33 41
-1.6681641 0.10939199 0.9746192 124 111 139
-2.5260816 -0.073119484 9.641622 78 31 37
-2.4615207 -0.0438951 8.531847 96 46 57
-2.4825647 -0.053760704 8.907967 82 35 43
-2.4661148 0.8340528 -16.675573 80 39 47
-2.430203 0.86823744 -17.814398 75 32 42
-2.503526 -0.06259792 9.295575 80 46 62
-2.4339597 0.8665711 -17.790737 61 25 35
-2.4067295 0.8595179 -17.808907 111 65 75
-1.9595922 0.075254925 2.4554725 78 64 87
-2.4535203 -0.038938105 8.38668 90 40 49
0.71798897 2.1104262 -67.383675 191 181 156
-2.4036531 0.85764045 -17.825983 62 30 41
-2.581636 -0.12014644 9.886905 76 36 47
-3.658612 0.7464875 -10.5141945 123 106 122
-2.93046 -0.12528317 13.077159 78 37 45
-3.3270576 0.71716946 -11.174415 56 45 62
-4.020103 0.7658957 -10.02853 119 101 117
-3.5096605 0.72754747 -10.832208 82 66 93
-1.8806219 0.07485372 2.0370188 70 55 78
-1.8346823 0.055780564 2.2922938 101 91 116
-1.9637742 0.9136423 -22.016575 70 24 35
-1.9396014 0.91623473 -22.276802 77 34 43
-4.676984 0.81127954 -9.642357 133 110 130
-4.6607447 0.80685836 -9.646049 128 101 116
-4.48997 0.7913087 -9.862825 138 111 130
-2.536796 0.70801437 -14.979847 84 39 46
-2.5301135 0.70734364 -15.002046 69 29 38
-2.6215298 0.69659996 -14.304713 62 26 30
-2.7230318 -0.14435655 13.03399 106 59 65
-3.8374248 0.71760494 -10.19116 87 66 85
-2.4900582 0.70615005 -15.310441 61 29 34
-1.6455895 0.08638984 0.8145067 131 156 196
-4.019172 0.7274009 -9.975984 106 94 114
-2.4792087 -0.042277526 8.791492 102 50 63
-3.023217 0.6602779 -11.969827 80 35 42
-1.302035 0.4431624 -10.209994 123 105 81
-1.2085683 0.50034654 -12.498405 127 113 86
-1.1142058 0.56448114 -15.031415 123 112 90
-2.5033884 0.6866739 -15.089645 68 28 36
-2.3717322 0.70578873 -16.25424 75 33 43
-2.340401 1.0213379 -25.616993 92 41 48
-1.6798424 0.09396268 0.9973448 78 74 97
-3.2525294 -0.4494525 25.816917 101 50 57
-3.2876966 -0.47347844 26.850378 101 48 56
-1.682745 0.09371393 1.0120184 80 77 104
-2.022182 0.8692163 -23.011467 58 21 29
-2.783422 -0.18174174 14.788529 53 26 35
-3.2827237 -0.49245808 27.585135 84 38 49
-3.197396 -0.4079374 24.255096 82 36 46
-1.3477834 0.42206144 -9.456998 60 51 34
-0.98437196 0.6779127 -19.578266 70 62 51
-2.4747808 0.6850472 -15.269052 74 27 33
-2.491242 0.68381536 -15.167304 63 30 39
-2.7681687 -0.17264804 14.432597 94 53 59
-3.1050441 -0.33678544 21.477947 76 36 47
-3.2314932 -0.525711 28.916426 72 34 45
-2.7458842 -0.162693 14.041062 69 29 37
-2.7656887 -0.17119499 14.397692 57 26 32
-2.6697266 -0.12326421 12.392363 65 29 39
-1.3921108 0.3914844 -8.323824 88 61 50
-2.9538112 0.64515364 -12.183116 93 62 78
-2.7795813 0.646794 -13.085448 65 29 39
-1.7202666 0.08988266 1.209386 118 109 138
-2.65442 0.6503377 -13.820724 74 40 54
-2.4271586 -0.026912209 8.1484375 105 58 64
-2.494241 -0.049898326 9.221061 62 25 33
-2.500783 -0.052568316 9.352953 55 23 34
-3.1064823 -0.36373886 22.942486 75 25 36
-1.8806683 0.047934186 2.264392 56 46 57
-3.127232 -0.412082 24.88719 69 26 35
-3.1227782 -0.40276048 24.521662 99 58 66
-1.7209698 0.088719815 1.2119542 77 62 85
-4.7416773 0.7734175 -9.650528 130 103 112
-1.3302937 0.88710344 -27.1512 82 41 49
-3.1104724 0.646226 -11.912099 95 54 70
-3.5861087 0.65078384 -10.449108 124 100 113
-2.8820212 -0.19829875 16.420927 143 89 105
-1.6850042 0.08622666 0.9978748 116 109 127
-4.610175 0.7203936 -9.51279 125 103 116
-3.8569202 0.6481515 -10.053323 86 120 207
-3.8519092 0.6449355 -10.055563 86 122 216
-2.2339385 0.039568447 4.9792056 75 45 57
-2.2212367 0.041501705 4.851689 73 41 54
-2.1087697 0.0574853 3.7422383 99 86 95
-5.0693765 0.7576709 -9.578762 89 72 106
-4.223659 0.649986 -9.611438 88 66 89
-1.797019 0.06907094 1.3668566 111 103 126
-3.2860115 0.5925136 -11.164182 78 41 58
-5.03176 0.73373157 -9.575831 106 90 103
-1.6920646 0.07706915 1.0112511 110 104 132
-3.496351 0.58843243 -10.515774 110 101 120
-1.6424141 0.07747504 0.7627833 83 86 119
-1.9581809 0.04857258 2.4683528 94 82 102
-1.6406566 0.07515597 0.7452476 92 110 146
-1.6537931 0.07302369 0.80040324 83 73 98
-1.6770517 0.07281123 0.9185296 39 30 49
-1.6782395 0.07229863 0.92499703 97 88 105
-1.8405818 0.050903026 1.9765654 57 51 65
-3.365327 0.56003714 -10.889156 88 50 61
-3.5852206 0.5652201 -10.277198 137 122 143
-1.7022243 0.07144331 1.0471575 117 102 121
-1.6989006 0.069661885 1.0258021 93 78 101
-1.6731417 0.06918787 0.88719785 78 65 83
-1.6656137 0.06881502 0.8472233 53 49 66
-1.652824 0.041359596 1.1368661 72 63 80
-1.626809 0.06717527 0.65130633 99 121 158
-1.8242604 0.06348088 1.7633536 102 94 117
-1.8230503 0.063444294 1.7475966 93 80 98
-5.0285125 0.66873544 -9.510465 95 77 89
-1.7055008 0.0651638 1.0480353 108 94 111
-1.7144437 0.0650514 1.091019 73 56 74
-1.7196087 0.06516967 1.1174453 99 82 100
-1.6319561 0.06461652 0.66714245 141 166 197
-1.628668 0.06422055 0.6509767 155 170 201
-1.6322478 0.0640981 0.67089605 68 82 108
-1.6322027 0.06427176 0.6706768 80 85 107
-1.6544089 0.06434859 0.7749638 81 68 85
-1.691954 0.063851446 0.95538527 98 88 112
-1.6881597 0.063764796 0.9385104 108 100 121
-1.5996248 0.06317802 0.5070025 106 93 121
-1.6756152 0.06346827 0.8743953 88 73 96
-1.6724001 0.06308308 0.8542151 88 85 104
-1.6738849 0.062807135 0.85946465 126 115 132
-1.5987912 0.062338725 0.49617425 128 124 141
-1.6725633 0.06262578 0.8510811 102 78 102
-1.6376868 0.061912164 0.67157835 117 106 120
-2.3904483 0.0038587542 7.7381034 93 46 62
-2.3929899 -0.017193668 7.547624 93 50 67
-1.6812075 0.06083989 0.8800311 73 69 86
-1.6239473 0.0603133 0.6011041 49 46 63
-1.6275221 0.060273454 0.6205719 86 76 85
-1.659354 0.06724938 0.45396212 43 52 61
-1.6542965 0.06008636 0.74202704 38 31 38
-1.6024872 0.05936761 0.4860273 120 124 159
-1.773604 0.05920511 1.3740822 84 82 83
-1.7265385 -0.05507804 7.395847 94 48 61
-1.806919 0.05859424 1.4895456 61 71 72
-1.7245688 0.07140392 0.80192393 47 67 58
-1.8044195 0.058984872 1.4038743 43 45 42
-2.5019903 0.41864118 -12.446946 113 69 86
-2.452984 0.41505814 -12.593368 68 51 67
-2.5025563 0.40010667 -12.256208 65 45 57
-5.409889 0.633141 -9.484625 74 76 89
-2.3216493 0.06131647 3.9596183 114 75 96
-2.803319 0.39330527 -11.232327 81 53 52
-4.772457 0.53539413 -9.382063 105 122 168
-3.8646088 0.4475149 -9.658353 129 137 158
-3.871826 0.447807 -9.65389 122 128 144
-5.382996 0.59015596 -9.415717 71 77 91
