ply
format ascii 1.0
element vertex 1180
property float x
property float y
property float z
property uchar red
property uchar green
property uchar blue
end_header
-27.264614 5.0024524 6.2395043 100 74 99
-31.052103 5.6405406 14.864928 88 36 48
-27.280483 5.0037694 6.1909184 94 75 94
-27.92319 5.10664 7.6719894 116 83 104
-27.252958 4.9876075 6.191529 116 97 117
-26.345547 4.8363237 4.337189 72 57 78
-29.011578 5.264298 12.016595 139 118 137
-28.099777 5.1199355 8.313046 117 88 110
-28.364428 5.1626544 8.927012 141 119 132
-27.273314 4.9759464 6.26101 144 122 135
-27.320425 4.981886 6.2890053 135 117 131
-31.86721 5.7538385 13.262181 104 80 104
-27.301746 4.970052 6.3352823 108 80 102
-25.682705 4.787693 0.82605433 109 91 113
-26.31095 4.801602 4.2962604 138 123 146
-25.77226 4.707882 3.324562 125 115 139
-24.07921 4.421923 0.7691641 133 116 134
-31.937168 5.7444034 13.103578 104 77 96
-26.27784 4.7875986 4.2079997 74 54 79
-27.254887 4.946083 6.167352 129 115 138
-22.343882 3.8671937 17.817595 97 84 110
-28.294743 5.104307 8.89352 125 94 109
-28.348747 5.110531 8.976406 103 69 85
-25.922916 4.718802 3.549304 107 96 126
-23.860285 4.37288 0.48450968 132 111 130
-23.824669 4.3678284 0.44885322 128 105 121
-24.612772 4.560526 0.4688965 126 108 130
-27.964283 5.0484753 7.763359 93 69 85
-27.27306 4.9365864 6.2053895 96 78 104
-27.228508 4.9293694 6.0718966 118 104 127
-26.23172 4.7668743 4.136929 99 80 108
-28.270966 5.08806 8.797077 145 113 124
-26.486416 4.803028 4.5216813 134 112 135
-28.088003 5.0587287 8.197626 128 109 128
-27.252811 4.925282 6.0472245 118 106 128
-27.178726 4.912541 6.001428 125 113 133
-27.041172 4.887623 5.784847 100 75 94
-28.27206 5.0841575 8.663982 116 83 102
-27.983637 5.038777 7.9443574 135 109 120
-26.929588 4.87046 5.436166 98 75 103
-24.861149 4.5307117 1.8080776 125 103 124
-27.235094 4.9171004 6.083712 96 80 106
-27.185001 4.630595 26.088572 95 68 87
-27.942894 5.0178733 7.9040613 95 68 87
-28.36296 5.0809317 9.015726 141 114 131
-26.926828 4.8552284 5.3404303 99 79 106
-26.66567 4.8124127 4.923263 101 78 104
-28.283394 5.06711 8.812921 94 79 102
-26.87386 4.843833 5.1800404 80 62 86
-28.285347 5.0586643 8.836166 102 82 110
-27.816954 4.9881086 7.4400682 78 60 86
-22.49629 3.7705317 25.391739 57 37 49
-28.104109 5.025435 8.235994 118 100 124
-27.932888 5.0006166 7.6094537 110 90 117
-26.553038 4.780125 4.678022 123 97 124
-28.550745 5.0871053 9.802791 130 105 127
-27.05936 4.857356 5.6208506 102 79 99
-26.411325 4.573989 20.135122 110 98 120
-27.097965 4.858087 5.737673 139 114 133
-25.879333 4.6640425 3.413277 96 80 109
-24.739172 4.5597324 0.63219523 130 107 125
-28.533035 5.0747266 9.754591 104 76 101
-25.085514 4.5712595 2.3677332 108 76 99
-18.000088 2.946864 24.560966 85 72 89
-28.624247 5.089244 9.961258 102 88 114
-26.311464 4.7292056 4.174587 135 116 136
-31.28167 5.478473 19.77988 91 48 65
-25.881868 4.653437 3.4784608 87 78 107
-25.990662 4.669596 3.619005 93 65 90
-23.30194 4.2317257 -0.2624337 100 70 96
-31.514812 5.553277 13.525816 83 58 80
-28.102636 4.9994426 8.209483 104 72 96
-28.01737 4.9880953 7.8833776 138 114 136
-28.028515 4.9824195 7.921862 130 113 132
-28.63612 5.0632787 10.001596 148 126 149
-31.573055 5.501051 18.592634 74 29 49
-31.686016 5.5248456 18.257313 106 48 62
-28.11606 4.9853306 8.130174 108 83 104
-27.785727 4.932938 7.4232745 133 109 131
-25.700193 4.704765 1.5178068 110 83 100
-31.120546 5.3973503 20.205065 100 59 75
-28.719471 5.0635176 10.062083 116 86 110
-26.311699 4.695726 4.1438723 108 80 103
-31.25988 5.4175143 19.8948 86 32 55
-31.172794 5.3953657 20.222404 86 31 52
-31.044504 5.369976 20.3799 82 35 51
-21.70242 3.5778468 24.041147 97 73 89
-26.441341 4.706241 4.3353877 117 89 112
-25.952225 4.6429935 3.448362 93 70 96
-26.964792 4.7789936 5.3976736 133 108 130
-25.997248 4.6286616 3.6085348 97 77 102
-28.712948 5.0364985 10.184478 104 70 94
-26.334465 4.6796045 4.119608 113 85 108
-24.28182 3.997609 23.185015 109 76 93
-28.082905 4.9395785 8.1017475 107 82 103
-28.023233 4.931558 7.8796363 120 93 112
-26.242132 4.661072 3.9492798 136 117 137
-28.473473 4.995187 9.065898 101 74 89
-26.921097 4.7582917 5.332138 76 53 79
-26.703768 4.725572 4.8779826 107 80 99
-20.07008 3.2689257 24.576397 99 71 93
-25.402767 4.339613 21.039356 88 71 90
-27.815107 4.888092 7.3730397 144 121 141
-26.475153 4.685956 4.41178 101 83 107
-26.174057 4.6396074 3.901792 128 113 132
-20.076708 3.2674203 24.586563 106 77 99
-30.764427 5.24656 22.873783 149 103 116
-26.892513 4.746221 5.240472 127 109 131
-25.475786 4.1426473 25.404608 98 77 92
-28.232002 4.9445825 8.384674 106 78 103
-27.085106 4.7697005 5.717044 102 77 98
-28.176975 4.9268885 8.290886 109 84 105
-28.4055 4.9512777 8.935179 109 85 107
-29.743996 5.026899 23.775854 123 98 120
-21.837023 3.5216491 24.179058 86 65 82
-28.01456 4.8911786 7.8148203 132 111 130
-28.042746 4.89332 7.9074564 103 72 90
-28.408463 4.9382277 9.08198 131 112 131
-26.944885 4.7262163 5.3684325 76 54 77
-26.899927 4.7152796 5.240336 90 68 89
-22.125025 3.679036 17.613417 106 87 107
-26.57859 4.660855 4.66662 96 78 102
-26.414888 4.4415693 22.299883 106 92 109
-28.847242 4.981929 10.417961 131 97 121
-28.27948 4.9060383 8.531189 104 80 102
-28.307308 4.9063754 8.649787 100 73 92
-28.153751 4.8854623 8.183073 131 108 124
-21.331392 3.3604095 26.200773 102 68 85
-28.773739 4.9658084 10.241929 124 89 113
-28.345467 4.912044 8.642141 98 69 89
-28.013407 4.8632703 7.7887383 112 87 109
-29.598288 4.9613366 23.504974 129 88 102
-27.005121 4.714977 5.4380007 133 114 133
-26.643347 4.660191 4.7457814 115 96 115
-28.124561 4.8739977 8.076276 103 69 86
-27.137003 4.7326174 5.731542 107 74 93
-28.795242 4.961717 10.328639 156 126 150
-28.41424 4.90514 9.08108 127 108 128
-28.120377 4.8619084 8.050189 116 89 108
-28.653702 4.923432 10.03079 128 100 123
-28.421019 4.8976493 8.960493 108 83 102
-27.957577 4.8342867 7.6849165 108 80 102
-26.864403 4.675483 5.196182 84 63 82
-25.534655 4.0400295 25.191975 100 77 95
-28.753046 4.9370785 10.102499 115 83 107
-26.837608 4.668914 5.178942 76 53 71
-24.945229 3.9450858 24.857016 124 100 114
-25.487066 4.0304317 25.025398 134 115 135
-28.788557 4.9172792 10.281666 133 100 121
-26.946184 4.660711 5.415548 134 121 141
-27.935507 4.800681 7.5926905 131 115 128
-27.763062 4.775526 7.22039 74 55 75
-20.446054 3.1525116 23.332346 83 62 79
-28.259209 4.838222 8.563789 119 96 112
-27.445389 4.7289834 6.3655167 130 103 122
-28.226223 4.832892 8.41948 129 108 123
-27.806131 4.7745004 7.3606806 105 87 111
-27.981583 4.7974772 7.748029 93 69 83
-24.144686 4.2343082 0.75731754 79 61 87
-28.468412 4.860176 9.123079 92 70 91
-27.955826 4.79266 7.6460595 98 71 90
-27.816172 4.773373 7.2735643 124 112 134
-28.367281 4.8396606 8.836474 97 66 81
-28.124155 4.808666 8.023352 134 110 124
-27.848057 4.7735963 7.2516828 95 72 98
-28.66251 4.874003 9.827718 111 81 105
-28.048332 4.79526 7.9712405 120 102 116
-24.970972 4.343835 1.897734 124 109 130
-24.854223 3.838881 25.93654 90 70 95
-28.693039 4.865583 9.954206 129 111 135
-28.645882 4.858867 9.755439 96 78 102
-27.24198 4.671327 5.9278626 120 108 132
-28.756075 4.866372 10.274782 119 92 107
-28.851986 4.8775277 10.551659 104 81 101
-28.788328 4.8702207 10.238269 94 65 83
-27.274162 4.6728973 5.907619 109 96 122
-24.555058 3.7497623 25.627861 113 101 123
-28.64834 4.834062 9.8939 79 58 75
-20.87357 3.139695 24.027784 65 52 70
-28.758125 4.8105345 10.07697 112 81 99
-28.081198 4.7299285 7.93017 105 81 103
-28.704252 4.7993894 9.927839 111 79 100
-25.00901 4.2942977 1.9452862 101 82 104
-27.772259 4.3231907 24.333784 103 72 88
-28.158585 4.7193093 8.053089 87 64 74
-27.402157 4.621119 6.148439 88 64 78
-27.215216 4.595312 5.7667503 93 73 98
-25.06235 4.2889647 2.0065498 103 88 109
-24.583519 3.6887002 24.218142 112 81 97
-28.616484 4.4849 25.631216 95 63 76
-24.834246 4.2516794 1.6478732 127 111 137
-27.702106 4.647736 6.9082985 84 60 74
-29.018858 4.7950215 11.222408 113 85 100
-28.982527 4.789253 10.967702 124 107 126
-28.091719 4.685997 7.919248 103 74 94
-24.682919 4.316227 1.5981202 125 108 127
-23.552668 3.706726 21.500647 112 81 87
-28.205637 4.6958365 8.244111 103 76 95
-25.151186 3.978758 20.967531 94 69 90
-28.835213 4.7674465 10.352248 146 121 142
-28.792524 4.761799 10.164947 121 84 101
-27.39974 4.450381 14.5829315 107 66 72
-27.014826 4.3606763 15.475047 106 65 71
-27.82992 4.6403556 7.0873814 96 75 94
-25.683748 3.9310446 21.927862 117 105 119
-25.162186 3.9613044 20.939837 93 71 94
-28.729507 4.734479 10.007783 136 110 123
-28.660597 4.7286315 9.638503 94 69 90
-25.3395 3.980881 20.84674 89 69 94
-25.248688 3.952874 20.896711 109 84 106
-28.854683 4.7270293 10.496127 96 77 96
-20.794899 3.0196407 23.922754 95 91 108
-27.427954 4.403405 15.172213 95 51 64
-28.822615 4.719613 10.469992 97 65 88
-29.004614 4.7323375 11.315679 69 47 60
-23.554214 3.435028 23.9964 120 96 110
-27.804144 4.5955424 7.0962534 93 70 96
-27.74661 4.5864787 7.018751 126 111 130
-23.173223 3.5755665 21.393608 113 91 112
-23.862259 3.690543 21.356983 105 91 108
-23.933886 3.7013204 21.360537 78 61 79
-24.914303 3.8703723 21.067009 107 83 99
-23.466976 3.6229904 21.34308 100 81 103
-27.795885 4.59181 7.0489736 118 103 124
-24.878244 3.858514 21.134296 136 109 124
-23.084608 3.5533664 21.401016 106 87 107
-23.88306 3.6808841 21.32416 73 48 69
-25.28367 4.2509885 2.2840633 79 61 85
-24.310514 4.1088986 0.9533681 133 126 144
-23.773067 3.6542287 21.364126 132 124 145
-28.936924 4.694996 10.883053 96 74 97
-25.286623 3.9032214 20.919708 105 72 89
-24.217836 3.7177877 21.299252 115 88 107
-24.925606 4.186441 1.7380694 111 101 125
-25.893747 3.9995713 20.540726 97 86 102
-25.272501 3.8889832 20.937931 135 111 125
-25.393162 3.910192 20.846361 129 105 119
-25.881243 3.9922893 20.58024 51 36 55
-25.874832 3.989163 20.60899 59 46 66
-24.571657 3.757762 21.198893 113 86 101
-23.85898 3.636266 21.323605 146 116 128
-25.189579 3.8604882 20.941488 102 74 89
-30.43301 4.7296343 20.78471 92 51 67
-23.732763 3.6088324 21.279266 93 70 90
-27.329128 4.487671 5.9222198 125 104 119
-27.707714 4.523344 6.722343 112 79 98
-25.819057 4.279526 3.1097112 96 71 92
-26.907621 4.4157352 5.1095414 133 118 137
-27.862839 4.5323544 7.123238 102 92 117
-27.749418 4.5191855 6.8476043 138 111 128
-26.410263 4.351271 4.129538 93 70 90
-25.477205 4.2284265 2.534218 99 86 112
-23.533484 3.9609704 -0.13945562 135 118 137
-24.37656 4.07811 0.92329156 101 80 99
-28.40655 4.58265 8.77983 89 58 76
-28.332846 4.572281 8.605632 67 44 64
-27.331146 4.45828 5.9198284 114 95 115
-27.467539 4.473291 6.136677 106 87 106
-24.879217 3.7513955 21.160309 109 78 94
-26.755796 4.384904 4.660326 132 113 132
-28.277235 4.5515647 8.258787 102 86 115
-28.236423 4.5491023 8.09012 113 95 121
-27.589897 4.477815 6.4052672 141 127 144
-27.513445 4.4662457 6.357566 144 130 145
-22.94838 3.4109175 21.565731 111 83 97
-24.079119 3.5605178 23.78925 91 69 90
-28.25918 4.537358 8.321447 126 116 141
-27.710375 4.47975 6.7977176 107 83 105
-25.144436 3.7728515 20.947664 124 100 114
-26.190063 4.290866 3.742405 72 48 70
-25.92672 4.292373 1.3369868 137 116 135
-15.490507 2.0798416 19.487116 109 89 100
-28.326838 4.543666 8.420877 109 86 114
-28.353058 4.5490274 8.383971 118 104 129
-28.289532 4.5359125 8.297467 73 63 88
-26.574638 4.3346014 4.388018 83 62 79
-28.28804 4.5344725 8.251136 135 126 147
-25.69715 4.2185516 2.8967612 76 63 81
-23.692875 3.5040817 21.247395 55 39 65
-29.657454 4.4583893 22.065775 97 57 65
-27.518503 4.4328113 6.258299 104 73 88
-24.366709 4.032561 0.8720454 107 88 108
-25.110731 4.127489 1.9322331 130 112 128
-24.287685 4.015873 0.84253114 129 112 131
-26.591892 4.313643 4.4207177 109 85 111
-24.266912 3.5721848 21.20718 113 81 96
-26.33879 4.2750325 3.8847706 112 84 107
-27.023317 4.351877 5.284105 131 114 133
-26.446066 4.2828617 4.095934 109 85 109
-26.12378 4.242819 3.5434115 112 87 108
-28.278725 4.4879756 8.195279 115 103 115
-31.844402 4.919666 15.023779 76 32 47
-25.842651 3.8220239 20.525484 79 69 80
-25.988022 4.217275 3.3311687 104 82 105
-26.30921 4.255096 3.8753543 112 86 113
-26.045979 4.2206407 3.4102979 100 72 94
-25.707952 4.1773143 2.8965952 80 70 94
-25.13271 4.104997 1.9612956 93 72 91
-31.904167 4.8661833 17.276388 59 37 49
-26.323137 4.2475333 3.8981082 140 123 141
-26.694153 4.2891808 4.5164843 133 111 132
-25.041939 3.6549134 21.048637 102 71 87
-31.892775 4.872833 16.007462 136 78 92
-20.284765 2.6649911 25.308304 145 132 149
-26.231535 3.8098016 22.666254 104 72 85
-26.424324 4.2538176 4.011531 100 77 97
-31.814672 4.8674774 15.567201 82 42 53
-26.191921 4.222482 3.6252213 111 86 108
-25.940405 4.1912913 3.19806 111 94 113
-31.87897 4.842662 16.974642 83 42 56
-30.898859 4.7636 13.405639 52 25 34
-31.785995 4.8352633 16.4597 91 45 58
-31.93626 4.8656588 16.260143 153 100 116
-24.885277 3.3578494 28.017706 80 63 82
-27.320387 4.1947474 12.867003 87 44 61
-25.51884 3.717893 20.691973 64 50 65
-25.543846 3.723233 20.647627 46 33 50
-29.56157 4.349585 21.801575 91 41 52
-25.986906 4.1869864 3.301658 106 78 103
-25.605629 3.729052 20.651894 41 27 42
-31.83986 4.845613 15.863627 79 32 50
-27.630522 4.3748975 6.4646363 112 81 99
-27.553753 4.3636193 6.4166355 108 76 97
-26.70321 4.2685723 4.5180917 104 76 98
-30.655214 4.535169 20.82301 101 69 80
-31.807016 4.8121204 16.713669 66 18 30
-25.46102 4.1113243 2.4634411 97 75 96
-31.860735 4.815867 16.680668 104 52 65
-25.716736 4.1408386 2.8877528 104 92 114
-25.507614 4.1166368 2.5093925 96 71 92
-25.353876 4.0964684 2.273308 137 122 141
-25.113348 3.6255608 20.884789 64 36 58
-30.55823 4.502653 20.961067 73 32 46
-27.982435 4.399564 7.301977 103 72 87
-23.760242 3.3952062 21.268337 67 51 80
-24.207031 3.4722 21.108618 79 54 73
-25.781582 4.1439743 2.9755723 89 74 93
-31.8993 4.8267813 15.926542 115 74 88
-31.18919 4.8085623 11.740997 155 103 116
-31.138073 4.8046665 11.535763 79 31 43
-31.923798 4.8200593 16.148996 51 25 36
-31.905739 4.819524 16.009083 78 40 51
-31.167213 4.804697 11.6065035 131 83 95
-27.164907 4.3014708 5.4784408 113 84 102
-26.895994 4.272949 4.8734794 115 79 93
-25.679956 4.1241484 2.8514323 83 68 89
-30.620346 4.496228 20.93277 73 32 46
-28.022625 4.388358 7.5554194 105 82 108
-29.623238 4.300704 22.224771 73 32 40
-27.705507 4.356211 6.6759105 136 104 119
-27.607231 4.346879 6.367536 108 81 96
-27.40938 4.3259587 5.9359355 111 80 96
-29.783285 4.3254356 22.231512 73 30 39
-30.264923 4.422108 21.377062 109 67 79
-30.575045 4.476491 21.204191 94 52 66
-31.885248 4.8234906 15.330359 137 93 106
-31.892023 4.784516 17.008541 69 36 47
-31.918835 4.804515 16.190905 108 62 73
-26.564194 3.636188 26.346737 127 113 130
-31.90923 4.7827725 16.686909 144 92 105
-26.337353 4.1905913 3.897834 125 105 117
-27.017418 4.2694526 5.1221657 145 125 136
-29.72476 4.304728 21.884434 78 37 53
-31.8885 4.782265 16.269781 59 26 35
-29.509499 4.2583714 22.163689 51 21 29
-31.860806 4.779024 15.9636 124 80 97
-28.061182 4.368992 7.556179 99 80 102
-24.226856 3.9211237 0.6955534 56 49 67
-31.85194 4.7576685 16.601027 70 32 43
-27.015963 4.2574854 5.120199 82 60 73
-28.230398 4.051343 21.75692 47 23 36
-30.244026 4.3818703 21.444544 112 70 84
-26.589363 4.2075334 4.3252244 113 92 107
-25.2082 4.0422215 2.0247319 81 57 71
-26.439999 4.1898212 4.00209 117 95 108
-27.498764 4.3059916 6.0915914 108 76 91
-24.595297 3.9606676 1.18856 91 69 90
-27.640276 4.3174443 6.4419827 117 84 103
-25.380344 4.0570235 2.3030522 94 82 96
-26.751684 4.218127 4.6078672 63 39 55
-25.86774 4.114097 3.0941942 72 62 86
-25.8037 4.1046896 3.0606444 79 69 93
-25.262495 4.0409403 2.1392677 73 70 79
-24.186453 3.9054427 0.64950204 113 105 126
-30.642607 4.4369063 21.081926 87 45 59
-30.28002 4.3648934 21.578695 115 75 86
-26.77992 4.2174716 4.6761155 110 93 103
-26.472355 4.1793747 4.1458926 125 102 120
-26.063059 4.1301284 3.4469059 83 58 79
-25.230904 4.0324607 2.0634956 65 48 64
-25.171066 4.0236363 2.0340567 75 58 74
-26.359549 4.164782 3.9220533 132 119 137
-25.655472 4.0828094 2.7001948 95 82 99
-24.221565 3.9043226 0.670786 86 78 102
-27.214281 4.255155 5.5843625 138 108 120
-25.71859 4.0826507 2.8489058 67 47 74
-30.286077 4.347802 21.54372 113 73 82
-26.556728 4.1781883 4.2948523 73 55 77
-24.986374 4.052478 1.4527471 113 89 111
-26.765133 4.1956825 4.62053 128 113 134
-24.52803 3.925514 1.0707482 100 75 97
-30.65116 4.469265 18.043205 57 25 30
-30.563757 4.44093 18.46744 56 25 30
-28.037138 4.31381 7.55399 92 72 99
-27.481348 4.265693 6.007833 129 102 117
-28.487272 4.3512535 8.78947 99 68 84
-23.450356 3.7836773 -0.30175224 128 110 132
-13.634383 1.6774645 18.183594 90 74 101
-27.319923 3.7958205 23.3777 147 96 105
-27.38832 4.2494397 5.902622 135 111 125
-27.257626 4.233746 5.69099 125 103 124
-27.097715 4.2161126 5.390069 80 47 66
-24.200336 3.8743193 0.6508377 132 119 139
-27.255579 3.7773407 23.33265 149 93 106
-24.946295 3.964738 1.622737 126 105 124
-24.635801 3.9257593 1.2432532 101 77 99
-31.682835 4.656402 16.342863 133 86 102
-31.733604 4.647843 16.450508 87 47 58
-31.819618 4.6685367 16.179926 78 40 53
-27.325495 4.222499 5.7004538 100 72 95
-31.563213 4.6433535 15.114072 66 25 39
-16.260883 1.9487668 22.16019 120 101 121
-26.34056 4.1091833 3.8368092 114 95 115
-24.595303 3.9043167 1.1458584 98 73 95
-19.078812 2.2807124 26.161274 128 111 130
-22.013235 2.8256414 22.594591 111 103 126
-28.28047 4.2948074 8.178723 129 117 139
-19.058886 2.3177066 24.262175 110 93 103
-24.536266 3.8903368 1.0626125 100 73 92
-27.727236 4.2413874 6.6522264 136 119 138
-27.525034 4.2240987 6.104777 135 114 133
-28.320457 4.2912607 8.193585 99 83 110
-24.857716 3.9238834 1.5048889 135 111 133
-24.485052 3.8751473 1.0043621 101 78 104
-30.232523 4.2498493 21.02889 81 40 54
-24.894241 3.9245558 1.5785348 92 67 86
-27.354504 4.1977587 5.760852 103 74 94
-26.633572 4.122748 4.302161 132 108 122
-22.229023 3.5868862 -1.1350505 132 146 191
-29.988482 4.192249 21.52022 83 42 56
-30.202435 4.2435966 20.659342 69 34 41
-23.968153 3.8067102 0.32732713 138 119 139
-30.219692 4.242865 20.675018 64 28 32
-27.965574 4.2511587 7.114423 97 65 86
-30.77966 4.420315 17.174946 75 35 43
-27.776026 4.2280703 6.710884 140 123 142
-31.631685 4.565439 16.540838 86 36 45
-28.624062 4.2946873 9.009285 121 90 106
-26.605867 4.1053324 4.284362 110 81 99
-28.294058 4.2585855 8.226786 97 85 109
-25.54782 3.9856436 2.5025878 114 85 103
-25.187761 3.9423609 1.9564167 117 84 95
-31.676725 4.5933957 15.277477 78 38 49
-27.456772 4.1866374 5.962381 114 90 114
-31.69059 4.556236 16.65529 108 63 70
-27.75222 4.21072 6.6030025 92 68 92
-24.724936 3.882088 1.2978685 140 117 137
-28.414946 4.25579 8.39282 110 85 106
-31.813684 4.5887127 15.464708 161 107 121
-31.887892 4.588642 15.742803 155 103 116
-29.120344 4.331285 9.56884 141 109 130
-27.788694 4.1962237 6.7028604 101 78 104
-31.79178 4.54209 16.614296 135 82 90
-28.245087 4.2250385 7.854275 109 80 100
-20.158693 2.3639848 26.21346 99 85 100
-29.66445 4.0538526 21.801083 107 62 69
-30.934477 4.397496 16.56894 64 27 34
-28.59141 4.24569 8.967815 111 77 91
-28.619848 4.2514367 8.931178 116 82 98
-24.61583 3.8479402 1.0985289 136 118 144
-29.84175 4.1354175 19.794273 70 30 39
-28.01239 4.2051935 7.1267343 121 89 110
-28.317673 4.221597 8.1272135 119 89 113
-28.28142 4.219044 7.9953966 121 91 115
-27.6342 4.162584 6.297449 142 123 142
-28.399876 4.2205276 8.3006935 104 74 98
-24.6113 3.8353777 1.1295071 140 118 139
-29.890732 4.058459 21.649212 131 77 90
-30.38971 4.155813 21.054798 141 90 105
-28.051224 4.184056 7.2514415 116 88 110
-24.224169 3.777059 0.63466054 101 82 110
-24.578806 3.816917 1.0988679 133 109 131
-30.869108 4.31785 17.36002 87 44 53
-30.765005 4.308397 17.1465 80 39 45
-30.693686 4.446939 11.784404 63 31 42
-28.252836 4.1739473 7.9696536 110 85 114
-26.66743 4.033255 4.394525 61 44 63
-24.119152 3.7528248 0.45478368 105 80 101
-26.510834 4.0153604 4.0486655 133 108 129
-25.369812 3.8937726 2.2065132 110 77 94
-28.398514 4.175763 8.414519 110 86 102
-24.964352 3.8421721 1.6712887 85 65 77
-31.607334 4.4759994 14.9452 145 93 106
-23.767504 2.9153428 23.367643 50 27 47
-23.507843 2.9449048 21.584326 91 63 77
-26.497637 4.002422 4.0056906 138 111 126
-28.05464 4.1418743 7.248187 108 77 93
-23.025795 2.9444993 21.284798 100 72 94
-26.67933 4.016249 4.337449 135 117 131
-28.230316 4.1489444 7.737586 105 70 90
-28.52782 4.1633677 8.631709 118 87 102
-24.88655 3.816217 1.5386806 134 120 137
-26.161028 3.9541461 3.4142406 122 98 111
-24.976614 3.8260922 1.631161 130 119 136
-19.05573 2.175285 21.713776 88 67 86
-24.667877 3.787317 1.2103786 94 75 94
-31.560123 4.4306135 14.944621 70 29 35
-28.546337 4.1558704 8.687147 141 119 132
-24.161995 3.7284524 0.52212846 85 63 86
-28.443996 4.144057 8.429098 144 125 145
-28.045563 4.115795 7.2895036 108 75 92
-24.245232 3.7344284 0.6442804 98 83 106
-22.02565 2.7602944 21.290373 87 66 83
-23.511541 2.9914842 21.19293 115 100 119
-24.898102 3.804525 1.5567614 79 65 88
-24.715004 3.7839499 1.3080894 66 49 67
-28.707666 4.1593018 9.067997 120 87 104
-28.621826 4.1479506 9.007787 113 80 97
-28.60256 4.146171 8.938208 104 76 91
-26.379984 3.9618535 3.8192613 95 63 78
-25.000895 3.817128 1.6267122 73 50 66
-24.774939 3.7913842 1.3356922 64 45 64
-26.494736 3.9694843 4.0509796 101 67 83
-24.849583 3.7971838 1.4480354 81 56 75
-26.617529 3.9738884 4.289102 76 63 80
-26.684422 3.9784255 4.3957543 114 111 132
-26.56288 3.9673831 4.1467423 124 106 120
-27.738968 4.0710406 6.554625 111 86 108
-28.002506 4.092167 7.11419 138 113 135
-25.804707 3.1064193 25.34499 88 70 86
-27.098448 3.4728625 22.37941 68 43 49
-27.421537 4.039877 5.8240023 101 83 97
-26.614805 3.9662967 4.1998477 71 48 68
-27.009851 3.4615157 22.26241 53 28 34
-27.174805 4.0124307 5.36759 105 84 91
-26.831612 3.9832916 4.635216 94 67 84
-26.663076 3.9670284 4.330188 75 57 81
-27.780193 4.0652924 6.5788393 140 122 144
-27.25287 4.0218554 5.413031 95 74 81
-28.056805 4.0838623 7.2914085 110 81 103
-26.719734 3.9648159 4.4042864 139 131 154
-24.595516 3.7446597 1.0824652 104 76 98
-22.502851 2.7877612 21.229107 92 64 78
-27.027035 3.4496377 22.202118 85 59 70
-24.61073 3.7450876 1.1096783 100 71 89
-22.718208 2.8159237 21.274025 97 66 84
-27.052572 3.4523106 22.153723 48 27 36
-28.546099 4.106524 8.646233 112 81 97
-26.972418 3.4368443 22.150394 95 68 83
-26.92945 3.981207 4.7329197 79 55 79
-30.524029 4.093709 18.39679 82 38 51
-30.25511 4.2107773 13.443722 70 27 36
-27.019781 3.983695 4.9910836 80 58 81
-27.00428 3.9829335 4.945961 72 50 71
-30.620758 4.121412 17.914022 86 36 45
-27.474169 4.016764 5.986858 88 73 102
-27.771313 4.0405235 6.6294518 101 91 115
-27.554745 4.0263853 6.0352345 81 65 92
-27.076752 3.9832811 5.068593 131 124 140
-27.646868 4.028976 6.3244634 107 103 128
-27.008604 3.9730766 5.0283833 121 113 128
-28.646408 4.0949883 8.926479 128 107 124
-28.006227 4.056334 7.1011066 70 59 76
-27.81749 4.0398927 6.6882606 76 62 88
-27.034958 3.9770856 4.94413 128 109 129
-28.62894 4.0886307 8.992622 80 61 81
-27.941729 4.0466413 6.998622 135 130 152
-28.635284 4.083772 9.019055 72 54 78
-26.396145 3.9063253 3.7616806 101 77 99
-21.859121 2.644888 21.281168 83 65 89
-23.742437 2.9378731 21.153921 128 100 115
-28.391163 4.0612993 8.271309 110 88 111
-28.074804 4.0435705 7.3282623 127 115 137
-28.660507 4.077819 8.955596 135 114 133
-24.972815 3.7564585 1.5768065 102 77 99
-28.662756 4.066538 9.138389 98 83 104
-28.1236 4.039939 7.379408 87 73 98
-25.240406 3.7787352 1.9585079 112 80 101
-28.111065 4.035225 7.329032 132 119 139
-19.945688 2.3418064 21.122023 92 64 79
-22.514881 2.7181134 21.340456 101 70 86
-24.959997 3.7411356 1.5402554 111 87 109
-21.889385 2.619626 21.222351 59 43 56
-21.896963 2.617961 21.2319 64 53 70
-24.097054 3.6386764 0.37776536 103 79 101
-22.384756 2.6812115 21.27896 94 62 75
-27.197517 3.4071343 21.273287 55 28 37
-22.916296 2.7439575 21.255392 104 71 88
-30.658136 4.0216303 18.03773 77 35 47
-30.558172 4.008451 17.938192 68 28 39
-24.115158 3.627459 0.40324566 107 74 93
-25.069857 3.726607 1.6603153 133 108 129
-30.674332 4.0249405 17.733004 76 34 44
-24.964266 3.7147646 1.5237612 134 110 126
-22.026272 2.5920796 21.245396 112 99 119
-22.898558 2.7262425 21.183666 99 65 79
-30.97578 4.1057396 16.340761 60 28 33
-27.841988 3.9666672 6.591831 113 85 108
-24.92258 3.6999586 1.4817767 107 78 98
-28.152946 3.974603 7.4410715 96 76 103
-28.130516 3.9699278 7.352877 100 85 106
-27.349834 3.9158673 5.5283966 140 119 138
-25.605782 3.75996 2.4680743 139 115 129
-22.112255 2.5856516 21.234373 84 75 96
-28.14895 3.969518 7.405715 118 106 126
-24.912952 3.6885579 1.4545374 118 84 108
-23.562841 2.8063583 21.078405 59 45 58
-30.443607 4.1560116 11.884884 89 44 51
-21.055994 2.4246418 21.159822 69 47 60
-21.095694 2.4307685 21.122164 100 87 105
-24.044228 2.8758802 20.973639 71 54 73
-20.888235 2.3947403 21.12959 59 40 62
-22.462103 2.629305 21.14398 84 63 78
-23.891962 2.844923 20.953875 96 79 98
-30.653172 3.963691 17.87351 107 70 77
-22.297632 2.597843 21.132092 122 109 129
-30.616014 3.9565632 17.834343 86 55 60
-22.712288 2.6537125 21.158476 120 105 124
-30.255693 3.8569272 19.03692 82 40 50
-30.451818 3.9094977 18.36768 109 72 79
-29.979843 3.7929304 19.56695 73 32 40
-19.096087 2.1140304 20.872078 72 62 89
-22.810226 2.656649 21.225561 90 75 94
-22.826408 2.65974 21.209383 91 76 97
-27.063416 3.8631349 5.0161223 116 102 117
-27.157368 3.8663223 5.105402 136 115 132
-18.89407 1.9109379 22.256933 61 51 76
-30.797781 3.9675303 17.48993 103 61 65
-22.840464 2.6464593 21.187145 67 54 74
-30.79316 3.965036 17.419773 114 73 81
-24.67821 3.6333442 1.1242257 108 84 106
-23.167374 2.6906087 21.192915 109 85 107
-25.01013 3.6668613 1.5380824 98 66 87
-22.669144 2.6026633 21.149054 99 84 103
-30.323616 4.0666447 12.151437 69 37 52
-23.634348 3.5129516 -0.22220126 121 104 122
-22.796875 2.6141982 21.2185 76 55 74
-27.07421 3.8336287 5.017612 81 73 88
-22.65258 2.5880673 21.079397 94 71 89
-27.108116 3.8319323 5.027251 65 54 71
-24.471418 3.5931718 0.815927 93 76 92
-24.431862 3.587004 0.7777421 109 95 110
-26.962767 3.1944058 21.76216 95 45 57
-30.151415 3.7498198 19.305048 76 29 39
-25.26328 3.6620278 1.8639411 64 44 56
-25.430246 3.6731153 2.1817977 52 29 49
-30.064161 3.726193 19.374416 89 45 58
-25.892006 3.7137165 2.9055207 87 78 99
-24.95467 3.6242342 1.542807 90 70 82
-30.351965 3.989831 13.292393 117 75 89
-27.039618 3.805486 4.9756393 128 127 141
-26.663723 3.7769873 4.1906924 77 54 72
-25.873072 3.7096539 2.8642635 75 60 81
-25.045435 3.6351585 1.5853361 109 88 105
-26.692078 3.7753708 4.2573023 114 101 121
-25.077187 3.6323595 1.6576368 75 47 69
-30.102829 3.7270136 19.04123 109 67 79
-27.142225 3.2072191 21.17879 59 29 41
-30.247757 3.9740102 12.821061 117 74 91
-28.081226 3.865728 7.0782776 135 108 123
-24.791641 3.5915112 1.2805133 84 60 84
-30.303488 3.986389 12.257747 78 42 54
-30.98753 3.9156644 16.593227 67 27 36
-30.531673 3.962486 13.236117 82 38 53
-29.964014 3.6377969 19.52739 83 37 48
-30.408957 3.9180455 13.398422 89 53 55
-27.073694 3.1265635 21.083563 74 38 48
-24.241041 3.5068858 0.47896728 133 105 127
-24.53409 3.5333698 0.8552208 126 104 117
-27.079723 3.1199179 21.088648 74 36 47
-27.763384 3.7837555 6.377498 86 67 87
-26.7969 3.0274298 22.091793 75 43 54
-26.896881 3.0355556 22.221048 64 32 43
-29.985777 3.5988286 19.29392 111 70 78
-27.484264 3.7632189 5.7063537 116 83 100
-26.815802 3.022823 22.054314 96 69 78
-24.708933 3.5327694 1.1170237 133 105 117
-22.44395 2.4189682 21.085382 63 46 62
-27.822157 3.2132053 20.85994 72 34 47
-27.838078 3.217173 20.821655 72 36 48
-24.294962 3.4823275 0.52479887 132 108 124
-24.569038 3.5009387 0.899739 132 108 121
-30.324535 3.8693376 12.255439 80 46 60
-30.245914 3.8350186 12.717548 82 41 49
-26.980581 3.0032144 21.538462 89 43 53
-30.352116 3.8676455 12.170065 119 71 83
-27.889128 3.7363029 6.5462036 143 118 139
-27.02119 3.0188475 21.138165 70 33 41
-25.352491 3.5491376 1.978547 93 64 82
-26.959503 2.9861443 21.550297 95 55 63
-27.0089 2.9916112 21.454065 73 32 38
-28.35163 3.7352145 7.851 118 93 112
-30.276617 3.8349895 12.200453 69 36 47
-21.614412 2.2065399 21.096457 107 79 94
-26.9588 2.9626684 21.367937 60 29 35
-26.866394 2.9542036 21.250631 71 38 47
-28.401215 3.7234166 7.880695 118 94 110
-26.883558 2.9466026 21.21174 87 60 69
-30.770096 3.6273382 18.244078 126 102 92
-30.248152 3.794346 12.293218 79 39 48
-27.561985 3.6786814 5.7572384 136 107 125
-27.070965 2.9649067 21.115215 72 39 50
-26.981773 2.9449217 21.13861 111 69 79
-27.1045 2.9574218 21.194824 104 63 71
-28.40417 3.6962388 7.890149 134 109 130
-26.40989 3.5828056 3.6801903 104 86 100
-25.979443 3.553239 2.9344916 75 55 66
-28.42364 3.6859734 7.943847 107 78 96
-30.307915 3.4384286 20.155216 101 65 77
-27.828442 3.6566937 6.5083313 91 73 95
-30.648277 3.5561955 18.320278 85 54 49
-30.440311 3.5130217 18.439735 155 138 122
-27.398832 3.630603 5.4496403 75 47 61
-30.37372 3.495651 18.612404 135 117 93
-25.960934 3.526795 2.9377117 142 134 149
-25.915634 3.5253158 2.8277085 127 114 134
-28.376854 3.6585658 7.8772726 118 87 103
-25.692644 3.5055478 2.4739766 128 120 141
-27.448639 3.6154006 5.4849358 147 125 146
-24.937845 3.4379354 1.3243581 114 89 108
-27.867733 3.6262045 6.5078363 121 93 118
-27.951292 3.6347148 6.5589542 113 83 111
-25.967926 3.5119789 2.8752103 76 65 81
-25.887213 3.5053475 2.747958 102 79 97
-30.532446 3.476076 18.578724 121 101 77
-25.984953 3.5105968 2.9152694 71 56 75
-25.04427 3.4400296 1.4506922 90 66 88
-23.859903 3.3378277 -0.07414573 127 104 124
-30.569181 3.5128345 17.760862 49 30 24
-27.869448 3.6224668 6.398746 115 87 110
-25.972733 3.505706 2.8763762 81 62 81
-28.188337 3.6256852 7.2654576 118 97 116
-27.725262 3.6145515 6.0269766 140 119 136
-27.607946 3.6088054 5.7651916 135 112 130
-20.96564 1.9834366 21.049265 124 94 104
-25.579428 2.5902536 22.089205 78 33 38
-28.079077 3.599064 7.0787444 118 85 104
-26.306896 3.510012 3.3593435 124 101 119
-23.01925 2.263624 21.032602 82 57 78
-24.269749 3.341589 0.46882093 92 67 89
-25.648857 3.4504745 2.346233 118 101 117
-22.489695 2.174789 21.017225 65 47 71
-29.940916 3.7059798 10.204272 58 31 36
-25.809767 3.4615374 2.59438 127 104 120
-24.795475 3.3825903 1.1415257 127 110 129
-20.061977 1.8327023 20.863255 99 76 92
-26.886261 3.5237267 4.421919 87 63 79
-31.289404 3.6195312 16.087814 100 58 62
-25.27025 3.4144776 1.7519205 127 99 121
-30.013552 3.6888692 10.375738 69 35 49
-19.723043 1.7748908 20.791422 116 102 125
-30.517693 3.680278 11.894922 79 36 46
-27.348469 3.5307598 5.313139 83 62 79
-27.394344 3.53382 5.3386116 72 52 64
-17.352077 1.4550817 20.12673 117 93 117
-29.958792 3.6596446 10.284063 71 34 42
-24.731075 3.3489444 1.032169 133 106 121
-26.642178 3.4837918 3.9054158 113 94 113
-30.59581 3.3948963 17.956331 183 169 143
-30.019108 3.6636138 10.325238 78 42 54
-26.977028 3.4994915 4.49434 101 74 89
-26.905632 3.4913266 4.4544926 95 67 82
-24.207117 3.301501 0.35812265 126 98 113
-25.213194 2.4342308 22.371 78 42 54
-30.646248 3.386099 18.037893 158 140 120
-25.962023 3.427335 2.8603446 73 62 76
-30.626991 3.3747952 18.121576 156 134 113
-19.815714 1.7429973 20.76004 66 54 78
-30.68988 3.3788235 18.0974 182 166 143
-25.556759 3.391601 2.2632723 106 85 104
-25.49135 2.4843256 21.750362 62 34 49
-30.154509 3.277234 18.572762 158 140 126
-30.56556 3.3537688 18.127249 174 156 134
-25.260948 2.4265866 22.185637 85 40 47
-30.633694 3.3612168 18.141878 185 169 146
-25.585047 3.389583 2.2689219 83 60 80
-30.534378 3.3505142 18.042442 163 147 124
-26.339334 3.4416738 3.3910437 98 76 97
-25.89657 3.406607 2.6368613 104 80 93
-30.230175 3.253038 18.856436 148 124 112
-25.728054 3.3889637 2.475095 103 81 94
-30.675064 3.3348284 18.213726 163 144 127
-30.698168 3.3452246 18.098955 153 136 120
-18.886982 1.4049709 23.746658 105 85 112
-31.213108 3.550838 15.190135 61 21 30
-30.166338 3.2248187 18.909885 149 126 112
-25.529264 2.449965 21.673716 73 31 43
-30.666565 3.3130693 18.356287 198 185 166
-30.68177 3.321196 18.234098 208 200 181
-29.530668 3.0554066 20.234383 78 41 49
-25.586233 3.3585515 2.2419453 62 44 56
-29.169977 2.985099 20.575178 57 20 27
-29.495064 3.0495434 20.191803 57 26 32
-30.728865 3.306731 18.261753 175 165 156
-30.084293 3.179766 18.944721 140 114 99
-27.215584 3.4427032 5.0316005 82 61 76
-30.76311 3.2896323 18.551727 205 192 176
-27.293455 3.450264 5.0757484 72 50 63
-19.503204 1.307046 26.307243 128 110 132
-25.444181 2.4012613 21.774597 69 37 48
-30.762106 3.2883391 18.482113 171 159 143
-25.947506 3.3680074 2.7899494 112 102 113
-30.131386 3.170166 19.026978 146 125 106
-26.752924 3.4062366 4.2203298 88 68 80
-30.770712 3.275626 18.487274 206 197 180
-30.377323 3.2596388 17.674921 139 120 103
-27.352873 3.440142 5.163498 90 72 84
-30.72845 3.2533505 18.723486 187 170 152
-27.029701 3.4187012 4.653652 70 50 59
-26.895071 3.410887 4.4369583 65 51 64
-31.154945 3.4832366 15.131829 74 33 39
-26.974573 3.4127326 4.578018 105 93 103
-30.166792 3.150948 19.115128 150 123 112
-26.063423 3.3622394 2.9890964 63 47 58
-30.726028 3.2431738 18.737091 166 148 134
-30.421602 3.2476158 17.800438 107 82 60
-31.12432 3.4243279 16.135777 65 25 34
-26.376995 3.3775334 3.508904 100 84 94
-30.160664 3.1395886 19.142853 154 127 120
-30.469524 3.243463 17.897188 155 132 101
-30.421944 3.2469885 17.634058 182 168 142
-27.269804 3.4210713 5.076892 75 52 68
-31.009058 3.4071295 15.9537525 117 70 80
-30.778246 3.2348022 18.805195 192 176 160
-30.79482 3.2451696 18.613651 213 202 182
-30.098185 3.1194334 19.12917 112 75 69
-23.919186 3.198301 -0.011885297 147 126 145
-28.779322 2.8630555 20.646952 50 19 27
-30.832912 3.2305179 18.85877 169 152 136
-30.433578 3.2335541 17.608227 162 146 123
-29.929617 3.622554 8.678509 78 51 68
-19.749826 1.6132776 20.70906 101 93 114
-30.501932 3.2448335 17.424864 204 192 166
-26.381664 3.3627658 3.4343655 126 112 135
-30.100403 3.105463 19.11139 155 133 120
-30.478352 3.224448 17.734274 161 144 118
-19.756195 1.6113987 20.717794 87 79 100
-30.392614 3.4166627 13.454147 98 48 57
-28.987335 2.8839743 20.412428 61 30 36
-29.561367 2.9914055 19.83058 61 31 41
-19.748459 1.6033095 20.70478 62 54 75
-30.153263 3.1009598 19.165047 162 140 126
-30.882965 3.2118201 18.940977 174 157 139
-30.458029 3.4203496 13.505514 89 42 52
-25.796755 3.3188384 2.521657 131 112 131
-23.743883 3.174342 -0.27946198 118 99 119
-30.364386 3.4099896 13.427469 72 30 40
-24.58123 3.2332501 0.8346192 134 117 133
-19.925594 1.6206796 20.72227 121 101 110
-30.83181 3.2049868 18.784473 205 194 176
-30.471256 3.2055783 17.792288 118 96 73
-30.510328 3.2294512 17.429247 204 194 169
-25.924143 3.3233008 2.701331 108 81 98
-19.702408 1.588308 20.727064 106 93 111
-30.77029 3.1939175 18.774683 209 201 178
-30.48955 3.2163086 17.542698 195 180 151
-30.354574 3.1869142 17.694885 116 90 67
-25.22846 2.2676191 22.07764 119 69 78
-25.409079 2.315534 21.595587 86 39 49
-30.116539 3.0840642 19.069702 122 97 77
-30.868736 3.1868994 19.02952 146 128 108
-30.07878 3.069393 19.104057 163 144 130
-30.500822 3.2149625 17.337002 205 191 165
-25.153236 2.2573426 21.931458 96 45 54
-30.49882 3.2074661 17.44959 180 164 141
-20.235598 1.6390524 20.859562 94 81 90
-30.149115 3.0725524 19.174282 166 144 131
-29.98628 3.495849 10.109415 68 34 48
-30.938929 3.1798954 18.904318 209 194 173
-30.089293 3.0506153 19.1451 117 87 79
-24.596365 3.2146459 0.8045335 96 72 94
-26.50948 2.4642947 21.085642 64 28 32
-25.290577 2.257205 21.853264 90 40 49
-27.80788 2.6742654 20.33105 62 27 34
-30.479536 3.171861 17.627207 145 117 95
-30.87448 3.1585557 18.907932 170 153 135
-30.409004 3.1511507 17.72502 124 92 69
-30.54812 3.183287 17.443789 179 164 141
-19.301413 1.2009969 26.357193 59 50 69
-17.260563 1.2506479 20.018482 77 72 95
-30.938393 3.1615546 18.900955 212 199 180
-30.77335 3.1474602 18.735306 187 176 158
-25.657946 3.2743301 2.287304 116 93 111
-24.067259 3.1669137 0.082020186 124 105 124
-30.941933 3.1565406 18.799002 220 209 189
-29.982607 3.4567058 10.209232 81 41 52
-30.94716 3.1486847 18.906298 182 171 153
-25.321842 2.2401135 21.650208 78 44 60
-30.149662 3.0222547 19.149094 158 132 119
-30.97485 3.1349373 19.005323 188 172 149
-31.010317 3.15057 18.828878 195 182 163
-30.977028 3.1248188 19.057951 166 148 124
-30.673824 3.1663644 17.442036 156 135 116
-30.943321 3.130183 18.778666 218 207 187
-30.932436 3.1216352 18.854853 199 187 163
-27.506002 3.3382158 5.4404297 98 71 88
-29.283846 2.836431 20.005789 66 34 45
-30.721794 3.1588264 17.454012 208 198 171
-30.049788 3.4448419 10.095032 73 40 51
-30.022799 3.4299822 10.209693 76 38 49
-26.913824 3.3122134 4.3272715 143 122 139
-26.91786 3.3148363 4.268915 140 116 132
-30.938616 3.112737 18.8066 169 151 137
-25.359236 2.211141 21.6964 75 43 58
-30.959557 3.1206403 18.652502 171 158 149
-18.656282 1.3657407 20.457468 124 105 125
-23.348083 1.856197 23.242208 103 43 53
-30.904459 3.0858912 18.964674 153 134 117
-23.257227 1.8355968 23.20785 119 66 72
-30.150461 2.976236 19.07252 110 78 63
-30.978148 3.0891485 19.035734 144 123 104
-30.547926 3.112433 17.4327 202 186 160
-24.402985 3.1534271 0.51250464 132 115 134
-24.348314 3.1472974 0.48863724 142 121 138
-31.002502 3.095311 18.86564 193 180 161
-26.47272 2.3769257 20.929081 115 68 78
-31.069664 3.1054838 18.758202 221 210 190
-30.161469 2.9688437 19.011267 140 119 98
-30.765512 3.120783 17.607101 157 140 122
-25.341278 2.1788003 21.688263 83 51 66
-30.77705 3.125881 17.484402 163 148 127
-26.899965 3.2866476 4.281772 102 80 103
-29.114283 2.755174 20.27435 79 45 59
-30.155436 2.9604628 19.03946 121 95 82
-25.141653 2.1331024 21.959291 95 44 53
-30.970457 3.0664263 19.008144 133 113 89
-31.055418 3.0834794 18.933796 148 127 108
-27.299263 3.301321 4.975199 118 97 116
-27.027857 3.2909346 4.4652743 132 108 130
-26.905499 3.281117 4.3019524 134 112 133
-27.52592 3.0774834 11.059024 69 29 38
-30.999105 3.0748613 18.807486 190 176 150
-30.761116 3.110408 17.452728 189 179 154
-26.913216 3.279845 4.3050437 130 108 129
-24.037064 3.1159952 0.030979438 105 80 102
-30.884726 3.123869 17.486307 148 137 119
-26.981815 3.279148 4.412268 100 75 97
-31.064848 3.0757875 18.784124 154 135 118
-30.895447 3.1175272 17.576885 189 181 160
-25.140434 2.115409 21.935307 82 35 45
-30.124935 3.3561552 10.903748 94 58 70
-30.86055 3.095538 17.645344 150 137 128
-27.994362 3.3409708 5.717484 130 107 125
-27.295086 3.2848082 4.95235 119 102 120
-31.043007 3.0807066 18.380041 166 151 130
-31.056044 3.0560615 18.843023 158 140 120
-31.006031 3.0569463 18.672045 179 167 145
-31.022099 3.065739 18.548988 171 155 132
-31.058945 3.0873084 18.240644 196 187 172
-31.15758 3.2536764 15.31544 153 102 119
-30.049818 3.3467789 10.6719675 73 37 47
-30.975882 3.035222 18.885843 118 89 71
-31.042702 3.0685701 18.463484 229 215 188
-24.613297 3.136078 0.7877943 82 64 86
-30.991352 3.0662313 18.293144 224 214 189
-31.130705 3.0933697 18.138182 95 84 88
-31.131002 3.0972993 18.037428 120 108 110
-26.40734 2.310227 20.975288 84 39 46
-27.136915 2.4211087 20.770555 61 25 35
-25.844212 2.2244873 21.16068 71 34 42
-31.077099 3.055032 18.60099 191 174 144
-31.124128 3.0830972 18.19916 115 106 109
-23.74176 3.0709543 -0.27565047 105 80 102
-31.115667 3.0747478 18.276047 125 110 103
-24.667175 3.130421 0.8441115 106 79 94
-24.52466 3.1199253 0.6865282 87 66 85
-28.262802 2.9541898 13.166948 84 40 53
-24.614357 3.1250796 0.77979815 84 70 95
-24.443575 3.1153138 0.5246172 129 111 133
-19.477865 1.3924384 20.595951 110 98 118
-27.092323 2.4005508 20.657213 101 61 69
-29.173674 2.6997988 20.239117 79 36 43
-29.204218 2.7094882 20.107294 97 47 58
-30.992655 3.0491786 18.189478 178 166 144
-31.15531 3.232942 15.157389 79 36 46
-25.814894 2.2002363 21.16062 95 57 68
-28.230354 2.9489038 13.13637 63 25 36
-31.021324 3.0292728 18.542608 135 111 87
-31.095587 3.041587 18.52817 163 145 121
-31.062437 3.0471044 18.37367 171 159 135
-31.040432 3.0402613 18.3033 156 138 114
-31.031261 3.061558 17.918495 115 92 76
-24.663916 3.1241906 0.7874458 116 102 125
-24.607758 3.1180463 0.7625068 127 115 135
-29.519741 2.7608707 19.718254 77 35 39
-30.992495 3.037111 18.187464 179 161 137
-28.909872 2.6299253 20.59398 71 31 40
-31.00793 3.0155857 18.563725 117 91 64
-31.072487 3.0545237 18.00926 173 157 134
-31.02983 3.0584466 17.832827 182 166 143
-31.107986 3.159701 16.116257 95 48 56
-27.551708 3.2514117 5.500794 119 94 116
-26.517181 3.2181404 3.5336 128 117 134
-28.816576 2.6084037 20.619307 105 63 73
-29.058254 2.6561112 20.367098 50 23 32
-30.96274 3.0396225 17.902227 177 165 143
-31.017235 3.1492548 16.032114 67 30 38
-27.387585 3.2493393 5.099589 112 89 109
-31.00606 3.0336204 18.06242 161 143 123
-25.6649 3.1691322 2.2835493 104 77 92
-29.649124 2.762461 19.728804 82 41 49
-26.538176 3.2134635 3.5767608 100 79 96
-31.024046 3.0322642 18.076853 154 136 114
-26.53312 3.2077088 3.6319969 149 128 143
-25.665216 3.1673536 2.2305214 129 105 118
-29.648716 2.7564085 19.727417 66 31 38
-24.626747 3.1071374 0.74897146 123 104 124
-24.66082 3.1060896 0.8178579 83 60 80
-31.096697 3.0031555 18.505875 102 72 48
-26.792746 3.2081337 4.082706 132 115 131
-25.858948 3.1665869 2.553807 134 110 123
-24.722425 3.1039124 0.891794 141 125 135
-24.985142 3.1170168 1.2523258 108 85 101
-23.755636 3.039662 -0.31157595 138 121 139
-25.082142 3.1220918 1.3600781 130 108 120
-31.045137 2.9920027 18.333736 103 73 47
-31.077133 3.0084605 18.141275 124 93 72
-25.851784 3.1585798 2.471701 107 79 93
-26.330965 3.1725342 3.3080125 77 59 75
-25.816647 3.1514792 2.4461234 85 58 67
-25.808718 3.1495867 2.426624 69 46 54
-29.995497 3.2987645 9.772874 75 35 44
-26.752878 3.1887455 3.964324 123 111 131
-26.649267 3.1841278 3.7645721 83 62 77
-27.33611 3.2043765 5.0095453 116 92 105
-26.666073 3.181934 3.806951 90 69 84
-25.952303 3.1520178 2.6359627 76 49 58
-24.538082 3.074026 0.6391771 83 68 91
-24.482628 3.0680532 0.6147986 77 62 85
-26.869457 3.1863744 4.1895776 86 66 91
-26.993355 3.1905508 4.370402 84 65 93
-24.297289 3.053832 0.3690733 86 72 97
-30.009956 3.28489 9.803932 106 63 70
-30.368048 2.9195013 17.185936 88 71 53
-30.279709 2.909853 17.098255 93 76 60
-17.714697 1.0975541 20.074137 101 78 94
-27.166956 3.1779811 4.757085 108 91 109
-28.08123 2.3985505 20.649265 71 31 39
-30.42502 3.1222155 13.435211 75 32 41
-30.434242 2.9083652 17.27785 91 73 59
-30.366617 2.8949 17.279293 110 89 70
-30.432491 3.185606 12.184336 132 82 91
-26.529587 3.1501513 3.5802526 96 69 86
-25.780128 3.116416 2.4008703 103 82 101
-25.684172 3.1142828 2.2319741 85 67 89
-25.515299 3.1043332 2.0152066 120 99 118
-30.449333 3.1935213 12.012158 96 48 62
-19.937239 1.3415841 20.636856 94 81 99
-30.429443 2.8932846 17.40325 89 67 46
-30.330616 2.889379 17.241732 116 99 79
-25.854504 3.1137989 2.567774 131 115 128
-25.826185 3.1204724 2.3846526 117 98 117
-25.762768 3.113902 2.3534355 125 106 125
-25.776478 3.1147418 2.3377924 128 110 126
-26.106934 3.1294808 2.8584678 73 48 69
-23.051655 3.0377374 -2.0426033 149 158 197
-18.60065 1.1766357 20.34578 120 105 124
-30.460346 2.883823 17.48407 121 103 83
-26.078093 3.1277025 2.788458 121 104 122
-25.54546 3.0990393 2.0290034 50 38 58
-24.177114 3.0226016 0.19776557 130 113 131
-23.975569 3.0106196 -0.07112983 100 76 98
-25.028275 1.9440178 21.592243 109 62 70
-30.499249 2.8762834 17.654984 120 98 75
-25.657 3.1049798 2.1647832 68 47 66
-24.210255 3.026273 0.1795515 132 111 130
-30.500414 2.8711905 17.721758 87 65 42
-30.3177 3.198115 11.390349 99 43 56
-25.551458 3.0977502 2.0309792 55 43 65
-30.516293 2.8748305 17.668644 138 113 91
-30.424314 2.878512 17.363873 90 67 53
-29.616804 2.9434893 14.249112 81 31 42
-24.422407 3.0340033 0.4715664 121 106 125
-24.88649 1.9131718 21.656445 75 38 55
-30.49949 2.8620076 17.803064 119 99 75
-30.409084 2.8690748 17.416014 130 113 93
-23.692604 2.447902 11.2238865 75 28 36
-25.218588 3.0750475 1.5657482 124 105 124
-30.500885 2.8625846 17.637548 142 126 100
-24.7407 3.049981 0.84445727 117 98 118
-18.901253 1.1978208 20.37194 55 41 56
-30.488817 2.8497705 17.80912 130 110 86
-30.535975 3.1607196 12.3140955 88 47 63
-31.170454 3.0623577 15.544324 88 51 58
-30.443247 3.1513743 12.241159 112 65 83
-30.442131 2.843468 17.628756 105 80 60
-24.180946 3.009349 0.15225406 137 114 134
-17.645363 1.0410067 20.059502 59 41 57
-29.111399 2.5195403 20.275827 95 52 61
-29.263525 2.554134 20.019045 91 54 61
-24.466 3.0235999 0.50854546 96 69 86
-17.690508 1.043329 20.040554 112 93 112
-19.074083 1.2034942 20.3916 65 48 67
-26.893982 3.1318789 4.143173 138 117 134
-19.368116 1.1065918 22.801296 67 53 70
-29.198904 2.537617 20.001211 65 29 39
-16.715544 0.9339953 19.656704 108 94 111
-30.474573 2.81823 17.909739 105 78 57
-16.65152 0.9223637 19.674013 59 46 66
-19.9422 1.293196 20.65986 87 66 83
-23.743607 2.967488 -0.3746957 121 102 124
-30.433151 2.8091316 17.765957 193 177 144
-26.796427 3.117753 3.9516137 103 84 104
-15.600452 0.7993263 19.188349 88 73 94
-30.345833 2.8089721 17.364239 172 156 133
-27.82327 2.7884352 11.119072 83 38 45
-24.456038 3.0058022 0.47531632 123 98 117
-29.345284 2.5330677 19.885113 88 48 59
-30.578445 3.1642778 11.57581 135 81 97
-29.968328 3.1700313 10.083864 80 42 55
-19.352238 1.1922235 20.512287 60 45 64
-17.65524 1.0007519 20.028666 84 70 95
-19.369303 1.1877949 20.499556 60 42 58
-30.343842 2.781488 17.374825 195 183 157
-27.762049 3.1155362 5.745028 133 105 119
-24.50029 2.9904141 0.5516499 97 76 95
-27.430859 3.103575 5.121993 100 71 93
-26.34153 3.074297 3.1933217 122 98 112
-30.875532 3.1344962 12.309147 141 94 110
-25.216444 1.8777753 21.355612 91 45 55
-30.783966 3.1091106 12.400371 127 77 86
-30.795303 3.1294563 12.101292 137 87 98
-30.598816 3.1261976 11.676801 145 93 105
-26.747936 2.0738242 21.218359 76 30 43
-26.877615 2.087829 21.265656 75 29 40
-30.817091 3.1154065 12.249771 136 88 100
-27.67788 3.0972483 5.5699067 110 79 94
-27.277319 3.0872376 4.841907 97 84 101
-18.321703 1.0448349 20.227566 129 109 121
-18.62945 1.079274 20.319695 82 63 82
-30.807423 3.1131089 12.174951 96 45 60
-15.102567 0.7053866 18.909939 107 89 111
-25.946997 3.043452 2.5482564 139 116 132
-15.278603 0.720533 19.004047 106 88 110
-30.781511 3.107434 12.076168 85 39 52
-31.054663 2.9141414 16.00128 65 21 36
-28.12638 2.6920712 13.35951 70 34 44
-28.056255 2.7111032 12.882649 58 17 31
-26.790707 2.0586698 21.270136 126 73 83
-26.966307 2.0832186 21.23784 101 48 58
-26.87546 2.0782647 21.122824 114 56 68
-29.062483 2.40561 20.300253 88 45 52
-29.234001 2.4459376 19.990986 77 46 61
-31.159124 2.944316 15.643266 119 69 78
-30.660141 3.0679116 12.434768 123 73 84
-30.812841 3.1012032 12.20412 137 89 101
-30.745485 3.101816 12.046637 101 55 68
-30.182768 3.0872352 11.020193 108 52 61
-29.487856 2.4991424 19.592087 62 20 30
-29.606596 2.5111473 19.648062 72 29 36
-31.057104 2.8413148 17.141119 140 129 125
-28.078714 2.6843414 13.275154 103 60 69
-28.710495 2.3430326 20.516247 56 19 27
-31.11032 2.9142883 15.971373 92 51 59
-25.883484 3.031152 2.4539018 106 83 101
-28.992483 2.3878546 20.294422 110 65 72
-30.801287 3.096861 12.114337 139 87 99
-24.411913 1.7183743 21.69821 102 57 60
-29.377975 2.4539623 19.964117 100 59 67
-31.636137 2.8095741 18.811218 139 129 127
-28.135548 2.6973193 13.046874 112 61 70
-26.78221 2.0424812 21.276619 80 40 51
-28.839504 2.3485792 20.550022 80 44 46
-31.643427 2.8111534 18.747927 200 191 184
-31.273535 2.8340805 17.506357 101 80 75
-31.119925 2.907716 15.930329 71 31 42
-17.93016 0.97626466 20.026232 106 87 106
-30.311878 3.0737634 11.238979 74 29 36
-26.839409 2.0390964 21.308834 80 37 56
-28.844954 2.341629 20.499395 72 32 40
-28.931358 2.366912 20.260183 68 30 43
-29.329782 2.4405549 19.855091 88 41 51
-31.450972 2.7481904 19.156033 107 98 93
-24.236807 1.6791747 21.669407 100 60 68
-31.317661 2.7238457 19.252213 127 122 116
-27.188265 3.0544589 4.6436443 108 84 98
-31.450783 2.7420082 19.154898 102 91 87
-31.53693 2.7591171 19.079838 133 119 116
-31.61634 2.7731082 18.963587 139 130 133
-31.720848 2.8075213 18.61082 182 174 155
