ply
format ascii 1.0
element vertex 1163
property float x
property float y
property float z
property uchar red
property uchar green
property uchar blue
end_header
-22.86656 3.5707226 4.924593 136 126 150
-23.240677 3.6367502 4.4643626 134 103 121
-17.739641 2.6034625 13.948764 64 54 79
-22.874908 3.5714269 4.8357534 92 73 93
-24.3903 3.8515317 2.3899114 66 43 61
-24.709633 3.9125886 1.7820466 59 45 68
-24.960663 3.9551396 1.5605563 52 43 64
-17.816282 2.6095023 14.005479 108 93 116
-24.031416 3.7812707 3.0463996 118 99 118
-24.145306 3.8025827 2.8398535 82 60 83
-24.32091 3.8367007 2.5099938 50 35 56
-25.141861 3.9899235 1.1339898 51 33 55
-24.487244 3.8671625 2.1972249 59 36 64
-24.922338 3.9452238 1.5730138 53 35 59
-22.064505 3.409725 6.2351522 86 63 81
-24.05628 3.783744 2.9223585 105 83 106
-22.188591 3.4301445 6.129704 124 112 126
-24.526834 3.8681872 2.1574974 98 72 97
-17.532898 2.5539331 14.078333 138 109 127
-22.153397 3.4238985 6.04057 123 112 129
-24.51904 3.8626335 2.1167097 57 39 63
-25.11862 3.9708786 1.1864833 57 43 68
-21.832264 3.3572283 6.5302997 109 81 106
-24.380888 3.833755 2.327839 105 77 102
-23.390394 3.6383107 4.175102 102 81 100
-17.732487 2.5699549 13.85022 112 94 116
-23.381666 3.6352289 4.169276 109 87 110
-23.932764 3.7411292 2.9499578 87 74 92
-24.478176 3.8402097 2.1167336 79 60 90
-22.143164 3.4000762 6.0738397 135 108 127
-25.132877 3.956294 1.225433 81 64 83
-23.878334 3.0752387 28.069674 116 89 106
-17.696402 2.5567172 13.862128 63 48 69
-22.26421 3.4163077 6.0440493 128 113 134
-22.144747 3.3950179 6.0630183 115 90 111
-24.028778 3.73907 2.9917614 79 68 85
-24.389643 3.805928 2.3561122 103 73 99
-17.721378 2.5438757 13.844323 94 80 97
-24.074358 3.7424545 2.9644263 132 111 128
-17.604593 2.5249145 13.73137 57 42 63
-17.702757 2.5373595 13.867067 47 32 53
-25.08921 3.9316163 1.2339483 64 50 76
-24.992355 3.9164808 1.1990179 76 56 83
-24.443956 3.8083017 2.182186 92 70 93
-24.811752 3.8732607 1.6332904 112 88 112
-21.704876 3.2869146 6.8161116 100 71 93
-10.230538 1.3917323 8.125573 104 77 96
-22.683798 3.4678736 5.2686324 100 80 92
-17.496939 2.4823713 14.272708 102 71 87
-22.68677 3.4649918 5.2917504 94 70 83
-24.211508 3.746416 2.6419811 117 95 108
-25.137445 3.9182823 1.2574209 118 105 131
-23.698809 3.6461077 3.5674417 69 53 66
-22.741219 3.4543865 5.2472053 101 73 88
-23.038868 3.5106738 4.709851 87 60 79
-23.387701 3.578891 4.0942764 97 77 104
-24.720772 3.8321576 1.8127593 107 84 112
-22.003683 3.3190882 6.2361155 141 113 125
-23.092537 3.524722 4.3597083 133 110 128
-23.144867 3.5328622 4.3275776 107 79 101
-24.68291 3.8253133 1.6523787 106 88 114
-22.038656 3.3160465 6.3476324 91 64 83
-22.980618 3.4955852 4.7268987 120 98 111
-23.79732 3.6445267 3.5256572 114 105 124
-23.697447 3.629368 3.4764626 104 95 114
-24.48746 3.7717457 2.1759725 85 72 100
-24.571754 3.7829237 1.924445 109 85 109
-24.84191 3.8337488 1.4136444 109 87 108
-24.364662 3.7350621 2.4587245 96 77 99
-23.988201 3.6632655 3.0691123 103 77 102
-41.282356 5.767366 28.822329 85 47 62
-23.752064 3.6143668 3.5104008 120 106 129
-24.466103 3.7496257 2.2766986 111 90 109
-25.072178 3.863523 1.3094167 108 93 116
-23.574091 3.5778947 3.7959294 102 78 100
-22.929146 3.4579983 4.703289 130 113 132
-23.85189 3.6336977 3.0815158 106 76 100
-24.08625 3.6770475 2.7031164 102 74 97
-23.693336 3.5986266 3.39217 126 109 128
-25.079018 3.8592765 1.1861608 97 84 104
16.57395 -0.7408389 -62.80781 130 105 126
-22.927961 3.4436457 4.7524743 91 67 91
-23.923187 3.625522 3.316549 104 82 105
-24.491245 3.7386358 2.1735766 113 105 128
-23.745195 3.5945542 3.4064028 126 105 124
-23.832834 3.6095958 3.3220794 102 70 94
-24.532768 3.7400365 2.162126 81 67 90
-24.75531 3.7827308 1.7468327 106 83 109
-23.569277 3.5568244 3.6814487 114 92 115
-25.063328 3.8320262 1.4370592 130 113 132
-24.965588 3.8171632 1.40087 128 113 132
-24.255785 3.676319 2.6136239 103 81 102
-17.6867 2.4138296 13.829157 83 71 83
-24.03769 3.6295176 3.0389192 99 78 95
-24.231482 3.6716456 2.461596 106 77 95
-25.08935 3.8322706 1.0540109 98 75 103
-24.928883 3.7988482 1.4129778 110 86 108
-25.06239 3.8208623 1.122676 133 118 139
-24.781633 3.7613134 1.6807766 117 102 121
-24.783989 3.7548256 1.8817048 94 71 87
-25.466467 3.8873513 0.67197305 120 102 126
-22.978355 3.4089406 4.764763 93 74 94
-22.935654 3.403082 4.7098665 87 68 88
-24.133995 3.6331174 2.71754 123 101 113
-23.751537 3.5542383 3.4920382 122 118 133
-23.238894 3.459035 4.0818 129 111 127
-24.584602 3.7065656 2.1784704 70 56 82
-17.560703 2.3527708 14.1154175 50 34 47
-22.525469 3.3177283 5.3127913 95 72 92
-24.500307 3.6918902 2.2084186 125 112 132
-17.58687 2.354567 14.085203 49 31 45
-22.45388 3.3015063 5.4269414 128 105 123
-24.031279 3.5966375 2.992974 52 34 50
-24.490864 3.6866426 2.1576266 124 112 132
-23.990171 3.58769 3.0219202 115 97 111
-24.614077 3.7025697 2.1058185 74 61 87
-25.082514 3.790427 1.3310907 95 89 117
-25.112928 3.7983394 1.1372066 66 53 71
-24.588816 3.6970773 1.984539 78 69 98
-25.0504 3.7802145 1.38996 133 124 145
-22.61817 3.3128397 5.3661237 97 84 110
-22.633793 3.3181603 5.2380633 109 90 118
-23.871315 3.5541224 3.2346232 130 115 134
-24.334494 3.6485474 2.2762573 121 103 125
-22.5333 3.303691 5.1769214 107 93 119
-23.993292 3.5747778 3.1076882 88 66 87
-22.5551 3.2943997 5.4433117 109 89 116
-22.51257 3.2906127 5.3533487 119 107 131
-23.989801 3.5700748 3.0383728 134 119 138
-24.200739 3.6143506 2.5539877 118 103 124
-24.54422 3.674053 2.1956592 111 107 134
-18.560814 2.6637404 6.6291785 73 42 57
-24.29751 3.6253707 2.558562 81 71 96
-23.147165 3.4060555 4.3514557 143 129 146
-22.572746 3.2923214 5.3581724 70 55 78
-22.529104 3.2880785 5.2785892 133 121 143
-24.207838 3.6070762 2.5938153 101 73 95
-23.75225 3.513843 3.45764 135 118 136
-23.994223 3.5608494 3.0681286 101 82 104
-23.911947 3.5441709 3.1740162 118 97 114
-24.242023 3.6087875 2.504916 63 50 70
-24.275557 3.608649 2.4158015 121 107 124
-23.831097 3.5127351 3.298198 123 109 124
-23.240444 3.3912568 4.3160186 106 69 86
-23.834543 3.5051093 3.3280826 87 64 84
-24.030437 3.544077 2.975964 77 52 73
-22.703817 3.2895217 5.052718 108 87 106
-24.244375 3.5860527 2.503144 99 85 100
-25.413345 3.80409 0.6199856 134 117 136
-24.284405 3.5806203 2.4719274 74 61 79
-23.57914 3.4300494 3.847699 134 115 134
-24.934015 3.6979039 1.4028168 136 115 134
-24.091413 3.535694 2.7151086 115 89 116
-23.994333 3.5066257 3.022778 106 82 104
-15.578499 2.039715 11.090297 128 68 76
-15.634292 2.047512 11.055973 101 39 50
-25.035944 3.7099462 1.1538185 100 76 98
-25.044851 3.7085528 1.1833462 98 68 92
-24.665821 3.6303415 1.913698 124 107 125
-25.169552 3.7295687 1.0325801 133 116 135
-15.542925 2.0280144 11.039016 115 62 68
-23.943802 3.4864256 2.9974754 114 88 113
-24.743011 3.6470928 1.490459 134 113 132
-24.185062 3.5276568 2.734901 101 81 106
-24.97236 3.6848834 1.2268652 131 109 130
-24.140936 3.5174654 2.762041 102 73 95
-23.142612 3.318643 4.3869705 113 80 97
-24.142954 3.5121257 2.7436502 129 104 123
-23.955317 3.4726052 3.0875797 104 76 99
-24.27048 3.5306811 2.7047489 114 89 111
-23.528658 3.3884258 3.8069797 136 113 131
-24.865864 3.640722 1.8068664 108 85 105
-25.072622 3.6923332 1.1372391 102 80 101
-24.068077 3.4904318 2.8705814 113 88 110
-23.29243 3.3429563 4.00265 108 74 90
-22.405891 3.146872 4.6376276 110 87 113
-23.794102 3.4312081 3.4164267 131 108 128
-24.216131 3.5160482 2.6326404 119 98 117
-25.121452 3.6914427 1.1451007 107 82 101
-24.18321 3.5016394 2.7023993 109 81 106
-11.540908 0.9943169 20.909376 125 101 115
-23.387354 3.3463223 4.0006495 134 104 112
-24.811363 3.618933 1.765519 99 80 102
-25.50139 3.7575562 0.5029106 96 74 97
-23.388895 3.3471835 3.9017794 134 114 125
-23.343065 3.3318045 4.1275277 112 83 101
-23.43903 3.3530912 3.8679552 111 84 101
-23.291107 3.3234148 4.119632 113 82 100
-23.663204 3.3919783 3.5460725 112 78 95
-23.957592 3.4474626 3.1236558 109 79 103
-25.278463 3.7014248 0.8188519 127 106 123
-18.098799 1.9554191 21.081945 80 57 77
-25.3087 3.7053254 0.78510547 98 76 97
-23.576412 3.3621328 3.7769463 110 94 107
-23.943691 3.4391825 2.9910495 106 78 103
-24.480085 3.5451314 2.0708075 131 116 135
-25.52519 3.745564 0.44834152 136 121 140
-23.619562 3.369051 3.7092352 146 125 140
-34.707836 4.743292 13.604936 115 82 99
-24.328075 3.5055413 2.4611235 79 64 83
-25.056198 3.6495085 1.2155938 93 64 82
-25.401867 3.715316 0.69313836 126 115 132
-25.480295 3.7325027 0.4335326 101 87 113
-23.193253 3.2784266 4.397788 117 86 104
-23.34615 3.3048408 4.23701 111 78 95
-23.725992 3.3735952 3.7721398 99 78 93
-25.27274 3.6896644 0.8066223 90 70 97
-10.023681 1.2017691 7.602974 113 86 95
-23.19367 3.2791243 4.3265805 124 92 107
-23.94829 3.427667 3.0585701 97 74 94
-25.603949 3.7477016 0.4458288 126 114 136
-23.668968 3.3643482 3.7424157 90 68 81
-24.883223 3.6077986 1.5267711 110 85 106
-14.470038 1.5693495 15.594341 88 69 88
-23.829092 3.3969963 3.2523327 112 89 107
-23.343964 3.2996411 4.0630226 117 81 91
-23.74755 3.375041 3.4066544 65 38 55
-23.752514 3.3718367 3.4674242 110 90 101
-18.794586 1.9692342 21.609205 106 79 94
-18.77559 2.515581 7.5984306 65 30 37
-23.995565 3.4113235 3.0582197 134 116 138
-24.25566 3.4637182 2.585581 73 65 86
-23.747726 3.362857 3.3953695 92 68 92
-24.181208 3.4477806 2.6755326 72 57 78
-24.200289 3.4439986 2.83525 93 68 87
-24.305042 3.4663277 2.6159518 74 61 81
-24.972425 3.6013224 1.3598908 120 108 122
-23.878502 3.3819592 3.2729619 74 56 82
-24.762655 3.5577898 1.7397714 104 92 104
-25.115995 3.628446 1.117878 89 85 100
-23.582844 3.3163679 3.9437006 82 54 68
-24.555603 3.5184603 2.013472 74 70 85
-24.587774 3.5247846 1.9441411 110 96 109
-23.798542 3.3612378 3.4482522 131 110 129
-24.40001 3.4827685 2.3469017 94 82 96
-24.854246 3.5665236 1.747529 72 58 81
-25.185299 3.6314178 1.1953832 62 50 70
-23.582647 3.313074 3.9331083 68 40 55
-25.341848 3.6544075 1.1695704 76 64 86
-23.488531 3.293266 4.074568 115 93 114
-24.592701 3.5194943 1.9637992 72 55 71
-23.532166 3.302081 3.956401 135 116 135
-23.620539 3.3237338 3.6640322 83 61 84
-23.532448 3.2997177 3.8464382 134 110 126
-25.120909 3.614811 1.1269381 113 104 123
-18.703686 2.8618665 -3.339751 140 137 166
-13.134579 1.2844688 17.028648 86 64 85
-24.739544 3.5326228 1.8284382 126 98 113
-25.106236 3.6011143 1.226968 141 122 142
-19.679674 2.0027869 22.918335 88 60 74
-25.13617 3.6017966 1.183662 133 115 137
-21.529545 2.9728236 4.850131 122 95 114
-24.95089 3.5651119 1.4463971 102 70 93
-24.980951 3.5673308 1.3856447 105 80 102
-23.244917 3.2252452 4.1628904 137 113 137
-20.928085 2.883503 4.4313807 120 89 105
-22.680115 3.105217 5.2860374 99 85 111
-22.622463 3.0923524 5.356971 145 133 153
-24.803257 3.522793 1.7229844 125 106 125
-21.623093 2.94169 5.1698537 116 88 103
-24.927013 3.5452564 1.5079039 103 77 102
-23.346533 3.2357516 3.9852428 108 76 99
-22.620066 3.0864196 5.3327866 93 79 102
-22.56511 3.0659027 5.3719993 107 82 103
-18.809834 2.4530325 7.6275516 66 29 37
-23.09642 3.1694453 4.423009 97 69 92
-25.252262 3.590437 0.9991089 128 106 127
-25.551563 3.4990275 4.3461494 110 81 99
-25.427952 3.6795933 0.046175886 153 147 173
-23.04347 3.1546106 4.4434433 137 120 139
-24.831808 3.501438 1.6490965 133 114 134
-24.85164 3.4994943 1.7290053 91 64 83
-23.091095 3.1539476 4.499542 104 78 103
-22.64327 3.0614963 5.1308236 126 94 118
-24.4217 3.4141805 2.1978698 116 89 104
-22.735588 3.071879 5.1852374 124 92 116
-22.982803 3.122281 4.7043986 118 89 109
-22.6202 3.04755 5.3377132 101 69 92
-25.179075 3.5535166 1.1831983 142 123 142
-16.33038 1.936243 11.611252 57 31 40
-25.679823 3.6661813 0.24561673 151 148 175
-23.196096 3.1573389 4.2595677 132 114 130
-16.36409 1.9289382 11.597568 87 61 74
-23.091969 3.1260583 4.5166397 130 111 131
-16.316095 1.9225122 11.5307045 95 68 83
-25.372568 3.5780728 0.70297587 111 86 108
-23.088387 3.1182537 4.492569 101 76 98
-22.696169 3.0355768 5.1686788 112 88 112
-24.232794 3.3384511 2.6925676 138 113 132
-22.510744 3.0004578 5.3613915 117 93 109
-25.033268 3.489637 1.4035496 142 123 145
-24.944798 3.467596 1.396654 142 118 140
-23.838488 3.2421036 3.2943013 65 46 66
-23.390358 3.1541102 3.9651268 115 83 107
-23.955177 3.2616 3.0875924 132 108 122
-25.031229 3.4727163 1.4005527 104 81 109
-25.640713 2.8956735 16.824545 91 41 50
-24.871237 3.4407868 1.628502 125 97 112
-22.607452 2.9822776 5.4268346 142 124 140
-23.09016 3.082212 4.4884377 114 90 116
-23.878345 3.2355537 3.2625241 137 116 131
-24.877619 3.4339988 1.66601 115 95 106
-23.951754 3.2520032 3.0462544 139 112 127
-24.623333 3.3803258 2.0781562 113 80 97
-25.898544 3.621218 0.44836214 142 123 142
-23.82916 3.2266817 3.2194939 136 116 128
-25.635988 3.5807488 0.37638485 100 77 103
-25.171612 3.4836116 1.145557 132 115 134
-17.579035 2.0491014 11.190005 58 23 29
-23.878262 3.2226653 3.2029533 123 95 107
-24.958397 3.425122 1.7956762 116 99 115
-25.206657 3.4912608 0.97232217 106 78 103
-24.193022 3.280627 2.7438254 124 102 115
-22.98171 3.0353796 4.701234 135 110 131
-24.811352 3.3937654 1.7283213 130 118 138
-24.843956 3.400103 1.6863241 140 123 142
-23.394995 3.1077611 4.05168 110 88 101
-23.23821 3.068354 4.4933815 132 115 134
-22.26787 2.8762228 5.916516 97 72 91
-22.60082 2.940737 5.4482794 103 81 102
-23.915339 3.2098286 3.140071 123 107 120
-24.966497 3.4180243 1.4790281 97 75 96
-22.612576 2.9424012 5.381008 85 62 82
-19.700693 1.2659822 35.14514 88 65 93
-24.27109 3.2739575 2.652443 115 103 127
-22.471329 2.9078748 5.667244 133 112 131
-23.874655 3.1978118 3.1400106 72 48 70
-24.796585 3.3823786 1.6756469 70 53 72
-23.833282 3.1875064 3.2260711 75 55 83
-25.23504 3.464043 1.0495512 86 66 91
-24.870893 3.3910296 1.6132904 79 54 76
-25.137924 3.450924 1.0155257 96 76 101
-22.6214 2.9314284 5.3423467 94 65 83
-23.393377 3.0844464 4.148272 98 89 116
-23.245304 3.055447 4.3215203 108 102 130
-23.666061 3.1398203 3.6107197 77 53 77
-23.71669 3.1462297 3.6065485 68 49 71
-24.291843 3.2693458 2.4904084 120 113 131
-22.666697 2.9325454 5.3580327 108 83 105
-15.108692 1.2380761 20.043041 126 108 134
-22.396101 2.8759737 5.8003826 94 79 102
-23.673855 3.1323924 3.6634774 129 118 134
-24.84574 3.3709297 1.6923652 141 120 139
-23.716051 3.137981 3.5853775 130 111 131
-17.037697 1.781103 14.718404 57 43 58
-18.238407 2.1802187 8.560247 82 40 54
-22.924513 2.9726648 4.8057075 140 122 146
-24.994238 3.3898041 1.4045957 104 70 95
-24.379951 3.2611072 2.4508054 109 104 126
-25.16782 3.418721 1.1101948 101 76 97
-25.656826 3.5110333 0.42613563 110 82 107
-24.748362 3.3225157 1.8239311 108 79 101
-25.988804 3.5111375 0.30793643 173 186 220
-18.365965 2.1880722 8.274408 111 70 78
-22.919683 2.9407673 4.829188 101 83 107
-20.653624 2.5947201 5.538595 91 45 56
-25.971878 3.4932764 0.2828591 163 179 213
-23.189833 2.979048 4.4341307 118 89 111
-24.722368 3.2898402 1.9017264 115 83 104
-25.929852 3.478977 0.2778907 157 170 202
-22.917028 2.919554 4.8873353 97 80 99
-22.971437 2.9220834 4.8976955 117 104 122
-22.96903 2.9245486 4.8543153 102 80 103
-25.21111 3.3825648 0.95255786 111 82 100
-25.304308 3.3940232 0.9843654 103 76 93
-23.999743 3.1292384 2.9938765 103 77 102
-24.857838 3.2981958 1.7155167 133 106 125
-25.245834 3.3767078 0.9364657 106 77 95
-25.286177 3.3824346 0.93261474 105 77 99
-23.669823 3.0500505 3.629912 92 64 86
-23.717104 3.051015 3.6328926 81 62 81
-24.80575 3.2791364 1.6846803 132 104 126
-23.624374 3.0241656 3.6244571 131 114 130
-16.110168 1.4781842 16.196053 111 93 109
-16.165073 1.4694282 16.288702 112 95 111
-24.35214 3.1538613 2.5292258 116 97 116
-15.957367 1.433269 16.405691 114 90 103
-24.472363 3.1765501 2.1784596 106 78 100
-24.996508 3.2771585 1.3916961 107 84 104
-16.32496 1.6662202 11.622583 96 66 76
-20.721426 2.4978175 6.0138884 74 36 49
-20.687414 2.4909542 5.946228 107 64 73
-23.889482 3.0333707 3.328132 55 38 56
-24.367725 3.125135 2.6359856 79 57 69
-22.99076 2.854629 4.545617 132 105 122
-24.487272 3.1388488 2.5169904 82 73 92
-25.162262 3.286682 1.2170964 97 78 97
-25.153917 3.285186 1.1873132 114 101 118
-24.426893 3.131391 2.4436939 71 57 74
-24.559908 3.1607327 2.1828713 79 51 73
-24.668648 3.1807213 2.0517714 56 31 52
-24.752375 3.2020507 1.819538 74 52 64
-24.89959 3.221687 1.6939689 101 79 92
-24.969524 3.2341719 1.629727 84 64 76
-25.011932 3.2340326 1.4545629 127 110 126
-25.036064 3.2277422 1.5438899 81 58 84
-47.244217 5.959913 6.54512 155 179 215
-24.952742 3.1956625 1.5553458 103 73 97
-23.39375 2.8798623 3.8982263 120 88 111
-20.72472 2.419961 6.003602 72 40 55
-20.693277 2.412367 5.926897 114 71 80
-20.665804 2.4113042 5.8548694 119 73 84
-50.935547 6.2373085 7.8502836 87 105 141
-24.994047 3.180261 1.3698953 140 112 126
-20.72333 2.4019058 5.9883456 71 35 47
-25.277935 3.2187576 1.0164682 131 108 126
-17.461372 1.83708 8.547855 103 70 81
-10.649805 0.47353843 16.485582 124 102 125
-16.525745 1.534441 12.214513 62 26 28
-24.729448 3.0863357 1.8972273 97 68 86
-15.96061 1.431131 12.494416 79 34 39
-16.570568 1.5126406 12.435877 60 23 30
-23.446882 2.810454 3.945482 134 107 124
-16.019043 1.4206003 12.545919 76 34 36
-22.562258 1.2794145 29.744917 83 58 77
-25.04627 3.120596 1.3987815 117 100 110
-24.12663 2.9265974 2.8688433 98 80 96
-24.222425 2.9369566 2.9118373 110 88 101
-24.388103 2.9789598 2.445783 75 54 63
-25.18858 3.1356428 1.2796096 92 68 90
-23.53373 2.7799535 3.8435051 154 133 152
-24.469414 2.9708242 2.4117856 126 111 134
-23.580753 2.78511 3.8274553 144 122 143
-14.420894 1.1285428 13.465194 114 91 109
-24.389416 2.9512513 2.4335861 129 121 136
-24.64599 2.9982107 2.1219263 88 73 96
-24.211952 2.9822342 -0.15725726 134 105 127
-22.746006 2.6758835 3.6138887 141 120 139
-24.384453 2.9414918 2.420538 78 56 77
-24.413034 2.9505 2.3026094 106 83 101
-24.431887 2.9436169 2.4124646 76 57 76
-14.338322 0.3863663 26.360432 135 115 140
-15.887058 1.135261 16.492102 132 108 124
-16.193283 1.3632231 12.673186 58 30 45
-15.903559 1.316377 12.81096 87 40 50
-25.004837 3.044835 1.5468708 97 73 95
-24.287891 2.8949583 2.6765661 124 101 121
-21.307566 2.3881707 5.1191735 67 34 43
-24.430105 2.922494 2.4365103 120 102 118
-25.244188 3.0884202 1.1588228 131 108 126
-13.527787 0.6085391 20.410357 99 74 96
-13.357218 0.5612446 20.869495 129 110 132
-23.886452 2.8011858 3.2462523 94 66 88
-24.5353 2.9345975 2.2467031 126 104 117
-15.921016 1.3008286 12.724774 91 44 52
-24.642252 2.9536624 2.1143641 116 100 113
-16.154211 1.3284628 12.6847925 76 45 61
-16.31685 1.3425006 12.784773 72 32 41
-25.098644 3.0417912 1.4166585 126 108 124
-15.954602 1.1066544 16.301962 97 65 80
-18.164173 1.7873254 8.564475 150 131 116
-23.630505 2.726134 3.6454585 121 98 116
-18.094551 1.7686298 8.565557 157 131 116
-18.156685 1.7758787 8.579574 109 81 57
-23.838133 2.7675505 3.2387314 100 68 89
-23.834248 2.7679896 3.188486 92 65 84
-21.324734 2.3510273 5.052458 69 31 42
-23.802996 2.7506673 3.3181515 97 73 89
-25.027195 3.01132 1.3069888 119 98 115
-25.168343 3.0265276 1.3578352 127 104 122
-23.794348 2.748043 3.312859 97 70 89
-24.634985 2.9116664 2.0690958 110 87 107
-16.248026 1.2909514 12.718375 81 36 41
-18.078846 1.7356815 8.664284 150 129 112
-24.683105 2.9114218 2.0878096 87 64 84
-25.256254 3.0344207 1.0494679 139 114 135
-13.645676 0.5501537 20.342144 110 101 122
-24.534515 2.8774886 2.248066 106 78 93
-25.499868 3.084481 0.6239462 134 115 134
-18.08671 1.7255737 8.658235 112 86 63
-18.06566 1.7196594 8.684979 152 133 119
-12.444317 0.29748064 22.155605 118 103 124
-12.929982 0.39247134 21.4956 117 98 118
-13.38924 0.48671198 20.744078 120 97 113
-18.015247 1.7110093 8.644527 158 139 125
-23.807474 2.7132866 3.4029229 95 67 89
-12.5127 0.28638262 22.301432 123 105 127
-13.213865 0.44813403 20.921286 97 74 94
-13.455478 0.49574342 20.596138 119 96 114
-13.417681 0.50039905 20.40326 117 96 113
-12.419352 0.2550692 22.595274 107 89 103
-17.27796 1.5420973 9.894712 88 49 54
-24.67587 2.884853 2.053645 68 45 63
-12.228568 0.22419737 22.533587 103 95 119
-13.089402 0.41875628 20.930458 117 102 123
-18.006985 1.6925619 8.657273 162 143 128
-25.534096 3.0560107 0.7103104 84 62 85
-13.024349 0.38619602 21.254896 116 99 115
-18.00997 1.6866852 8.659541 166 149 131
-23.850863 2.6950974 3.3909674 68 48 59
-23.941233 2.70842 3.3562896 101 85 96
-23.940905 2.7107549 3.2981951 70 54 64
-24.25823 2.7694316 2.7900984 100 84 97
-17.016764 1.3784753 11.749457 72 35 42
-25.047604 2.9471595 1.1995149 98 81 89
-17.992403 1.6590781 8.672639 111 78 69
-16.467426 0.68972343 21.877867 103 76 91
-18.047356 1.6581116 8.703449 163 142 125
-25.521194 3.0196505 0.67539984 140 121 141
-24.525242 2.8105054 2.1708481 128 111 129
-24.502888 2.7972696 2.290786 108 85 103
-17.974104 1.6388632 8.60166 161 138 122
-14.151125 0.9354764 12.685564 100 43 52
-18.005981 1.6307582 8.643334 97 65 54
-21.347866 2.2490263 4.9279532 77 37 46
-21.330086 2.2364082 5.0173593 76 36 45
-18.024607 1.6262581 8.624861 146 123 105
-18.08711 1.6407874 8.4468975 142 126 101
-16.887924 1.288936 11.983696 112 62 71
-24.205172 2.7074087 2.7115588 105 84 103
-18.025629 1.6157252 8.610805 110 82 61
-18.049467 1.612268 8.585559 147 125 104
-26.491766 3.052769 0.8430702 125 103 124
-25.284517 2.9172053 1.1335663 91 74 92
-21.383413 2.218331 4.97527 108 62 65
-24.24831 2.687026 2.7080061 123 105 121
-15.742192 0.5338538 20.751575 72 53 73
-11.727552 -0.007712312 23.024305 92 70 91
-21.222818 2.1564667 5.4653444 79 39 48
-17.182243 1.3105738 11.595274 75 32 41
-27.921537 2.5240853 12.787572 62 29 40
-25.22138 2.8865273 1.0468291 122 101 120
-25.376726 2.90789 0.97750574 133 108 127
-23.766045 2.5652575 3.5198836 118 97 116
-23.759676 2.5710664 3.409543 122 101 120
-21.223173 2.1446173 5.442163 91 58 65
-25.280518 2.8953686 0.9613129 133 116 135
-25.415451 2.9101377 0.9896615 137 113 129
-17.20146 1.2992442 11.573171 94 54 62
-21.255981 2.1481345 5.3178415 73 33 42
-23.883535 2.590546 3.1868815 102 78 100
-23.717402 2.5481937 3.4650273 119 104 123
-17.590097 1.4563553 9.458636 62 24 37
-21.861937 2.3756073 2.5612702 123 101 122
-25.343346 2.891894 0.88456607 105 76 94
-16.26307 1.0898503 12.903731 84 37 43
-13.440413 0.2959281 20.598852 103 85 101
-23.787148 2.780723 -0.31275687 130 107 125
-17.767092 1.4837633 9.185221 82 39 48
-17.766792 1.4802425 9.184104 70 30 39
-16.885649 1.0017395 14.87234 90 41 47
-25.305025 2.8664634 1.0540506 113 99 114
-12.492264 0.09022239 21.896294 131 112 132
-15.881991 0.9766083 13.489427 83 41 53
-24.62861 2.7058792 2.2448356 116 89 106
-25.172506 2.832541 1.1746818 113 85 100
-25.205814 2.8368118 1.1419433 83 69 94
-25.277723 2.8551636 0.95525855 131 114 130
-12.519644 0.083619 21.80843 118 101 120
-23.672354 2.5069306 3.5359814 115 91 115
-24.695915 2.7127678 2.1049392 96 66 76
-16.080847 1.0364758 12.887629 75 39 53
-24.20622 2.616625 2.7094054 119 102 120
-25.301096 2.8392792 1.1745384 128 114 137
-25.283894 2.8408365 1.1153506 121 97 119
-15.926713 1.0167707 12.872831 76 31 38
-21.467112 2.1587555 4.8136168 69 33 43
-24.21158 2.611265 2.7491121 99 81 97
-24.686178 2.7091408 2.0724347 102 71 86
-25.21142 2.8244271 1.1688086 94 68 93
-21.455503 2.1465464 4.875948 73 34 39
-25.2038 2.8200765 1.1390221 125 107 129
-25.289967 2.8267245 1.14219 115 96 115
-25.217379 2.8136396 1.1700907 83 58 77
-21.46686 2.1470227 4.7908816 107 58 64
-25.192074 2.8017213 1.2141341 140 122 134
-21.469652 2.1454277 4.7512913 74 34 43
-24.42057 2.6260579 2.583385 142 118 131
-25.02234 2.7695339 1.4192146 104 80 94
-24.253115 2.5964987 2.7360783 85 66 86
-25.273846 2.807186 1.2414863 120 103 111
-24.662493 2.6741278 2.1612332 86 58 72
-21.470419 2.1347427 4.7708607 111 64 70
-23.71597 2.4790735 3.503459 116 92 106
-24.66343 2.67269 2.1432662 70 43 58
-24.642712 2.6582847 2.2916384 80 48 59
-23.8582 2.4898329 3.444836 66 44 56
-25.0573 2.7463636 1.5466406 83 59 73
-16.052801 0.9810347 12.894781 77 31 41
-23.809196 2.4813151 3.4010568 92 75 93
-13.408647 0.20097022 20.52411 108 93 112
-16.0452 0.97897166 12.881352 75 35 46
-23.812511 2.474985 3.4508643 69 53 64
-12.818208 0.057852726 21.530836 105 91 108
-12.776072 0.046798892 21.592417 74 60 77
-24.72382 2.6623747 2.025598 91 69 90
-24.741468 2.6729383 1.8773688 124 106 120
-12.759548 0.05909903 21.31183 89 72 90
-13.535679 0.2191711 20.218348 67 55 77
-13.423261 0.19014715 20.43372 65 55 80
-13.385995 0.19656214 20.243229 74 60 85
-24.475328 2.6083035 2.3582404 72 47 69
-24.576286 2.632551 2.1501746 100 76 92
-24.696026 2.6504383 2.106084 124 102 123
-13.46956 0.19221854 20.454967 85 67 93
-24.307705 2.5576572 2.7738016 100 75 94
-24.760494 2.660474 1.9840605 65 46 66
-24.738028 2.6647391 1.8746735 49 34 53
-24.476402 2.6004734 2.3854332 127 103 119
-24.689339 2.643325 2.0655334 117 105 125
-24.82283 2.672066 1.8617648 119 102 121
-25.545357 2.8356166 0.59159696 105 80 102
-24.801344 2.6618364 1.9269336 104 87 103
-25.315187 2.7846406 0.9239463 123 106 125
-24.217937 2.5367532 2.8085163 130 106 122
-24.20769 2.5421317 2.6908906 103 76 95
-17.601221 1.345641 9.331969 80 42 55
-26.957321 2.132101 12.127067 92 40 52
-25.469032 2.8038054 0.7301221 137 116 135
-27.027319 2.1341197 12.180006 76 30 40
-25.002932 2.688295 1.4839839 97 72 93
-24.517725 2.5759864 2.3430333 131 107 123
-12.1394 -0.13599496 22.360777 127 108 127
-25.328382 2.7546718 0.9515617 128 105 123
-25.527288 2.7982826 0.52963597 117 95 116
-23.492348 2.347755 3.8621416 137 111 124
-12.172523 -0.15016197 22.370712 103 82 101
-24.099054 2.4704056 2.9682698 106 85 104
-24.318306 2.5232563 2.5078833 122 98 112
-15.749415 0.8476943 13.141348 105 60 67
-25.341228 2.7365375 0.99767524 99 76 96
-17.667852 1.328646 9.071658 70 28 38
-17.726027 1.333859 9.096512 75 29 39
-15.783851 0.8464739 13.192157 94 49 52
-17.583237 1.2960609 9.339837 109 62 70
-18.080153 1.4193137 8.310412 130 112 108
-23.808853 2.3967087 3.428137 92 75 93
-15.694317 0.82076186 13.240805 105 62 69
-23.90335 2.4019353 3.4339774 137 116 131
-17.63042 1.3082175 9.115763 87 44 54
-24.628523 2.563285 2.1897192 139 114 133
-17.564512 1.2897236 9.267438 62 25 33
-23.805105 2.3865945 3.424565 80 56 72
-24.610476 2.5586016 2.1072319 106 83 103
-17.689562 1.4047707 7.545312 155 143 131
-17.675596 1.4043951 7.475051 185 177 158
-17.708845 1.4021218 7.5174236 167 158 141
-21.375011 1.9712241 5.219715 73 27 38
-17.688013 1.3990902 7.463478 137 127 115
-17.741686 1.4142643 7.3022485 128 117 123
-25.471592 2.7141838 0.86081964 132 115 134
-24.517807 2.5065 2.3432267 101 74 93
-21.271852 1.93929 5.243226 93 42 51
-25.171358 2.6462977 1.2948719 102 84 110
-25.333994 2.6865892 0.9713913 126 111 130
-21.308668 1.9402348 5.265829 66 26 34
-21.310612 1.9353187 5.277193 68 31 39
-25.340872 2.6790879 0.9905619 89 70 92
-25.076496 2.62924 1.2685409 144 121 141
-25.49373 2.7160385 0.6746528 134 109 130
-25.606176 2.7314224 0.6246205 128 109 131
-17.968016 1.3594337 8.16498 119 94 72
-25.508396 2.7214663 0.5927078 121 102 124
-25.623247 2.7364995 0.55201316 132 107 129
-25.213226 2.6497672 1.1309583 141 120 139
-17.563227 1.3733784 7.195 143 131 115
-23.929455 2.3719003 3.0913353 135 113 125
-25.431805 2.6813736 1.02052 128 105 123
-24.221088 2.4192688 2.803927 89 64 85
-24.377035 2.4503202 2.6077852 80 57 77
-17.571785 1.3838817 6.917092 50 37 29
-24.170242 2.4115565 2.75234 130 113 132
-24.859539 2.5388148 2.034106 119 95 108
-24.14993 2.3920674 2.9805002 72 58 75
-17.51898 1.3514168 7.249443 59 41 27
-24.556192 2.4820511 2.308556 122 99 119
-17.571533 1.3486321 7.342837 70 52 38
-25.258537 2.6356156 1.1443841 71 49 61
-24.385323 2.4336526 2.6567485 78 59 78
-24.595524 2.4842503 2.2502706 92 68 90
-24.413794 2.443209 2.5370994 83 58 79
-24.512512 2.4699695 2.3081617 91 66 88
-17.100355 1.003768 11.646275 66 27 32
-24.13915 2.3841488 2.906948 73 56 72
-22.020647 2.0678017 3.9725761 105 58 66
-17.538782 1.3450347 7.132874 79 69 70
-17.520771 1.3470961 7.0721745 62 53 58
-24.266794 2.399049 2.7829657 142 129 149
-24.891901 2.5393581 1.7785975 121 106 125
-17.556402 1.3264121 7.43623 61 44 34
-17.607746 1.3401129 7.296953 83 68 63
-24.507454 2.457948 2.2673106 121 95 108
-24.722933 2.5009565 1.995439 86 67 87
-24.854298 2.5160937 1.992359 71 56 75
-25.377766 2.6439388 0.9631762 142 125 144
-24.127645 2.3749845 2.786013 129 112 130
-17.90706 1.2970772 8.318422 140 128 106
-17.573172 1.3074151 7.5972786 123 111 99
-24.183353 2.3733013 2.8770325 92 74 96
-24.969503 2.552415 1.5092477 105 86 105
-24.708754 2.4784753 2.144907 83 58 79
-25.57785 2.6767285 0.6616607 142 124 140
-25.618898 2.6882296 0.53617555 106 87 107
-26.224295 2.603658 0.1936046 135 138 171
-21.22196 1.9068714 4.7354836 106 53 63
-24.881327 2.523511 1.6824149 102 80 101
-25.095688 2.5672448 1.321703 97 69 91
-25.410341 2.6198914 1.0601707 78 56 79
-24.698927 2.46908 2.0841863 61 46 65
-15.982085 0.7874638 12.367841 103 49 62
-17.71383 1.2617661 8.273666 153 139 136
-12.745114 -0.18317306 21.264296 81 62 81
-24.232012 2.3566961 2.9246523 120 105 126
-12.440923 -0.2544576 21.77034 77 69 90
-25.522713 2.6564775 0.6244016 134 113 130
-12.450661 -0.2705427 21.95788 106 98 119
-23.927017 2.3024306 3.1476161 135 111 125
-24.14101 2.3412366 2.8832107 108 93 112
-24.829294 2.489249 1.8506136 112 90 111
-25.435663 2.614772 1.0227071 98 83 102
-17.634884 1.3265266 6.9971137 137 126 104
-24.228367 2.3466306 2.921316 95 76 98
-24.66322 2.446002 2.1412935 143 121 134
-24.776226 2.4813306 1.8021554 143 122 141
-14.6321745 0.21608979 18.254839 117 94 110
-24.060179 2.3141801 3.026157 140 119 134
-24.957731 2.521871 1.4736477 137 113 129
-13.398425 -0.05400602 20.119692 81 66 87
-25.368322 2.6123118 0.7974025 123 100 118
-24.81996 2.4789581 1.8179451 104 77 94
-25.578753 2.642988 0.65801024 137 119 135
-17.714828 1.254197 8.013491 57 42 49
-17.850609 1.2953131 7.6527066 81 68 52
-29.508673 2.2782393 14.611472 79 38 46
-21.018568 1.7903029 5.5873117 90 43 53
-12.595722 -0.25552377 21.602465 113 111 133
-13.060001 -0.14300495 20.732079 120 94 105
-14.375406 0.15876693 18.453691 71 57 74
-29.462572 2.272862 14.569945 64 29 35
-23.624388 2.220257 3.5317175 128 102 113
-24.949331 2.4989097 1.6128199 140 122 138
-15.325365 0.5849464 13.754729 96 43 53
-16.832727 0.8685491 12.070812 85 36 40
-17.051178 0.9303346 11.509615 68 30 41
-17.138655 0.9323258 11.6218605 57 25 36
-17.847755 1.2176719 8.65373 72 47 50
-17.690147 1.1655368 9.111083 83 36 44
-25.334927 2.5734427 1.1002693 129 106 124
-17.51548 1.1340096 9.281542 82 39 49
-24.45256 2.397261 2.2091503 140 116 129
-17.59438 1.1359755 9.366783 56 20 30
-17.73064 1.2333509 8.16627 54 35 29
-25.000172 2.5082078 1.4603008 144 126 142
-25.094904 2.5163476 1.4951465 145 122 138
-25.121214 2.535503 1.26357 112 87 106
-17.68803 1.2355584 8.041905 52 34 30
-24.611998 2.418602 2.108122 147 123 137
-25.27214 2.5541608 1.1750056 103 75 97
-17.849266 1.2124007 8.556559 98 73 66
-17.852087 1.2697984 7.741562 65 55 46
-17.787802 1.2613046 7.736099 112 100 84
-23.980324 2.2686749 3.139 98 75 101
-24.706501 2.4361727 1.907017 143 125 141
-25.214714 2.546427 1.118974 136 113 133
-16.860994 0.86267334 11.958332 79 32 40
-25.071524 2.51013 1.3958478 142 121 140
-11.900375 -0.41547477 22.375568 109 101 125
-24.78213 2.4457831 1.8273189 140 117 135
-24.906761 2.4754007 1.6036601 113 88 109
-17.126278 0.9057544 11.700023 62 29 38
-13.209911 -0.13413714 20.35799 112 95 114
-23.901255 2.2358866 3.39029 128 101 116
-12.573438 -0.2862544 21.466848 70 60 85
-25.057938 2.502271 1.33628 125 103 124
-24.692434 2.4261167 1.8271829 109 80 100
-17.945026 1.26593 7.7019043 82 55 46
-21.71436 1.9611044 3.7407598 141 99 113
-25.312359 2.538834 1.1687502 119 100 119
-25.288877 2.5421638 1.0724949 123 98 117
-17.881638 1.1664786 8.973926 55 27 42
-24.746967 2.4090085 2.104353 69 58 74
-24.783417 2.4314847 1.8440491 127 104 124
-24.682468 2.4077816 1.995707 135 114 133
-13.221794 -0.15080419 20.35759 111 96 115
-24.189411 2.2856662 2.9350245 120 117 138
-25.103735 2.498089 1.3429533 104 80 102
-25.423288 2.560423 0.95071316 91 77 94
-11.910656 -0.4406616 22.366323 110 104 132
-24.173475 2.290967 2.7850156 126 106 115
-24.153824 2.2693887 3.0329218 115 103 123
-25.574615 2.5929809 0.6419415 149 131 145
-11.836289 -0.47132513 22.577078 114 108 136
-25.465773 2.556564 0.9723015 107 93 108
-25.356497 2.5385025 1.0317521 89 76 96
-23.676916 2.1616745 3.7170901 123 96 113
-11.678905 -0.50203913 22.68637 114 103 133
-12.1335535 -0.40652773 22.005745 118 108 135
-23.939497 2.2176607 3.287818 71 49 62
-28.419971 2.631683 3.6400542 82 58 80
-24.191004 2.2680056 2.9335122 81 71 98
-24.06247 2.2453208 3.0276368 101 81 106
-24.272112 2.2820947 2.8363445 132 123 144
-11.798886 -0.49355245 22.617552 112 108 135
-13.130518 -0.18745852 20.371819 87 69 91
-21.849062 1.9735454 3.3592567 70 48 61
-11.710277 -0.5247981 22.81304 115 111 136
-15.083796 0.23865353 17.220587 106 85 100
-12.165457 -0.43282166 22.123106 121 110 140
-14.922455 0.51515055 13.07272 106 63 82
-21.648766 1.932685 3.5395477 96 65 83
-23.904184 2.1810186 3.442989 126 105 122
-28.280037 2.1540837 11.065124 77 34 43
-24.445223 2.3085024 2.4470885 96 74 95
-13.831487 -0.06142569 19.293913 103 85 99
-23.814104 2.165898 3.4284496 95 73 96
-24.054562 2.224905 2.963283 107 79 94
-15.2785425 0.25905165 16.947626 68 54 67
-24.215223 2.2542899 2.750423 152 130 143
-25.501896 2.5345583 0.7962838 117 89 104
-24.22109 2.2495492 2.8000836 122 96 109
-24.489552 2.3062992 2.4091074 142 120 133
-12.834128 -0.3164366 21.167486 81 63 85
-14.157799 0.011821753 18.615099 61 43 59
-14.883541 0.4932132 13.002437 84 38 48
-21.648596 1.9119966 3.5459707 68 30 45
-21.808966 1.94469 3.325025 59 33 44
-17.55837 1.0502958 9.296375 69 23 34
-27.840029 1.9095826 12.55618 88 49 68
-24.094095 2.221651 2.9319477 143 113 125
-24.137558 2.2302604 2.8663955 136 114 127
-25.009296 2.4250453 1.4804891 141 115 124
-14.23513 9.413099e-05 18.807264 98 91 107
-14.695409 0.4373062 13.416515 75 39 51
-16.09262 0.62680465 12.9184475 68 32 42
-24.963394 2.4058151 1.6520622 138 114 128
-27.903126 1.9105047 12.601958 103 54 75
-21.690208 1.9041888 3.5766158 123 86 103
-12.674933 -0.368098 21.402739 58 51 67
-25.057997 2.41855 1.4972644 94 67 76
-14.648953 0.42906395 13.332868 114 72 82
-11.997288 -0.52122545 22.403906 76 68 89
-11.910369 -0.52685964 22.3217 114 106 129
-11.643627 -0.5795421 22.616755 76 64 84
-14.052381 -0.047746804 18.816713 48 37 53
-11.939304 -0.5460764 22.436182 77 59 75
-14.089013 -0.056578293 18.921085 54 42 54
-14.12212 -0.047325432 18.843763 99 79 90
-17.600159 1.0274684 9.248033 88 44 59
-13.94222 -0.09208379 19.131178 62 57 79
-13.806165 -0.111527994 19.166855 78 77 91
-12.653407 -0.38103604 21.093748 122 109 127
-18.949938 1.3257731 7.034238 78 40 51
-12.686076 -0.37821132 21.031887 77 69 92
-19.240692 1.3633802 6.9253125 104 58 71
-13.748777 -0.14235145 19.317066 84 76 97
-13.953888 -0.113033764 19.219477 100 92 105
-12.873251 -0.34681705 20.793129 56 44 68
-13.754727 -0.1325857 19.151886 101 93 108
-13.972973 -0.09239837 18.952486 101 98 115
-13.816825 -0.13445695 19.252542 96 88 99
-13.700717 -0.15844843 19.37952 136 114 126
-13.702195 -0.15187985 19.292835 119 108 122
-13.157875 -0.2878369 20.252922 56 53 80
-12.960535 -0.36074716 20.850498 81 65 110
-23.977152 2.1351058 3.1093817 130 107 123
-12.749662 -0.39338738 20.969799 43 49 75
-12.871097 -0.35321584 20.604591 49 35 86
-12.929701 -0.35163727 20.6393 158 158 220
-13.136093 -0.29258543 20.142881 143 167 229
-12.858366 -0.35792252 20.592455 44 33 99
-12.448889 -0.4745315 21.469774 129 112 130
-13.3727 -0.27007845 20.012606 60 43 59
-11.71767 -0.64542973 22.6537 93 78 99
-14.081988 -0.116779156 18.90604 41 30 44
-12.730538 -0.40923724 20.855902 123 119 144
-12.9084 -0.40753403 21.073214 152 152 214
-14.889301 0.065184556 17.583553 34 24 35
-12.771242 -0.40225053 20.792185 54 57 102
-14.905692 0.06647201 17.57496 38 26 38
-24.817488 2.3038275 1.7677081 144 121 129
-12.810241 -0.40365762 20.824892 128 125 182
-15.00557 0.095795065 17.25985 35 28 36
-14.29476 0.30320242 13.500652 105 65 76
-25.055885 2.3491402 1.4788315 99 73 82
-13.296643 -0.29565543 20.047895 15 28 73
-24.706093 2.2797523 1.859904 142 116 125
-13.253076 -0.30943248 20.098076 147 172 236
-25.18707 2.3669028 1.3110591 103 75 89
-14.220282 0.27255428 13.574579 140 87 95
-12.522167 -0.49438483 21.326395 83 75 99
-12.810878 -0.41665727 20.715832 70 74 135
-13.188119 -0.32052496 19.972837 39 56 126
-14.723274 0.017600097 17.638838 83 73 84
-25.128172 2.356887 1.2446512 109 89 101
-24.740396 2.270506 1.8435637 68 47 56
-11.95832 -0.63263726 22.307695 126 104 125
-11.904667 -0.66347635 22.525204 122 104 120
-11.939649 -0.6382489 22.184845 98 77 96
-23.8535 2.0479293 3.3420022 118 105 131
-13.439738 -0.3050584 19.828627 99 82 101
-23.994328 2.0567842 3.4086637 135 125 149
-14.08609 -0.18051156 19.047039 54 40 53
-12.771432 -0.45449394 20.769587 91 87 124
-13.435678 -0.30149314 19.65303 95 84 101
-14.10622 -0.15146787 18.61191 112 97 116
-14.139312 -0.14874516 18.621805 115 102 122
-14.514725 -0.07672244 18.195608 49 36 45
-14.055862 0.24121399 13.3681345 142 89 97
-12.240462 -0.5696479 21.449852 121 111 136
-14.054957 0.23542412 13.430097 118 68 77
-23.981304 2.0676787 3.0833244 95 70 89
-14.1276045 -0.18423927 18.960169 53 44 63
-13.51485 -0.3161899 19.775585 104 97 115
-24.346449 2.1563625 2.3215375 73 116 211
-13.352177 -0.3580017 20.04313 106 94 114
-24.368843 2.1448107 2.4793184 67 107 205
-24.484802 2.165546 2.3789804 83 118 210
-12.974064 -0.4206951 20.2765 162 171 226
-13.285389 -0.36789477 20.013239 62 61 103
-13.994508 -0.21491358 19.00133 70 52 74
-13.568437 -0.31391695 19.694265 89 69 96
-14.039066 -0.20666403 18.927456 114 102 124
-23.886143 2.042418 3.0845873 144 116 130
-13.60855 -0.3079973 19.631733 130 117 137
-12.922177 -0.42793193 20.2307 41 27 89
-12.387184 -0.57998127 21.450386 74 62 86
-14.860448 -0.033814277 17.716526 48 41 59
-24.555136 2.1722121 2.2493162 111 84 103
-12.971768 -0.43060786 20.265173 143 157 218
-13.574896 -0.3094817 19.523573 102 83 103
-24.390795 2.14644 2.338092 74 118 217
-24.4817 2.1521301 2.3756323 77 115 212
-11.970351 -0.70599693 22.366423 127 123 146
-11.914412 -0.68828654 22.05011 126 122 145
-13.954857 0.18813288 13.433457 152 104 118
-24.392057 2.1342418 2.337142 77 121 216
-30.861814 2.6231344 4.4220304 136 110 123
-23.989105 2.0168598 3.2638807 124 101 117
-23.856115 1.9911401 3.394072 86 57 77
-24.595556 2.1588218 2.2355423 118 90 105
-24.895113 2.2302406 1.7053195 98 68 76
-13.281915 -0.40116486 19.98919 37 37 73
-13.980511 -0.24220143 18.889662 70 57 75
-13.540338 -0.3473873 19.58835 124 98 107
-24.858643 2.2165225 1.7535666 101 74 89
-24.900232 2.2222066 1.7245617 129 107 120
-24.38898 2.1208901 2.3338127 76 120 215
-24.947142 2.2393932 1.5438646 98 68 78
-23.893364 1.9936601 3.28427 96 72 94
-24.47985 2.126474 2.3713214 83 122 213
-13.593585 -0.32158187 19.167871 86 64 77
-24.387575 2.1082015 2.313042 78 114 211
-13.836798 -0.28842208 18.919333 70 56 69
-11.62888 -0.80731547 22.564495 112 102 127
-12.78269 -0.5447843 20.735117 115 119 167
-12.452793 -0.61105 21.119492 111 101 126
-13.247469 -0.43793285 19.957506 84 95 141
-24.072104 2.0033197 3.1439726 79 63 89
-12.73048 -0.54963005 20.687208 45 35 69
-24.392767 2.0976107 2.3419054 76 120 217
-24.388664 2.097756 2.312233 77 115 212
-13.17654 -0.44805574 19.913645 141 169 234
-13.740834 -0.3274398 19.130604 86 58 70
-24.019608 1.9990383 3.0615225 124 119 142
-12.782003 -0.54597145 20.627243 150 144 204
-13.214446 -0.4408707 19.845257 26 42 93
-24.164165 2.0040317 3.117813 120 106 129
-13.455338 -0.42326802 19.866652 60 46 61
-13.749101 0.12802039 13.283449 94 54 62
-24.392427 2.087787 2.3312407 71 117 213
-13.284888 -0.43945467 19.785723 42 29 46
-14.955472 -0.06104435 17.163235 83 75 90
-12.370382 -0.65883285 21.308475 115 105 130
-12.652682 -0.5815799 20.710602 35 37 58
-13.518576 -0.3872632 19.375757 114 101 119
-13.787533 -0.33449703 19.056715 114 101 121
-14.1366415 -0.27417833 18.745476 68 57 74
-25.024237 2.210965 1.5134993 107 79 93
-24.386316 2.0774615 2.3083727 80 120 215
-12.884793 -0.55418146 20.426329 145 136 189
-13.56441 -0.4014517 19.3901 85 71 88
-12.158957 -0.7359617 21.752714 116 100 126
-24.056765 1.9834858 2.9222984 122 100 112
-12.821282 -0.55963486 20.373398 26 16 41
-12.905419 -0.56939745 20.602032 46 31 64
-24.391851 2.0633557 2.336944 80 123 215
-24.387775 2.0635371 2.3072953 88 125 214
-13.082255 -0.50429255 19.935677 33 35 58
-11.766217 -0.8058373 22.021646 120 110 135
-13.163063 -0.5139703 20.144245 16 21 40
-27.549116 2.0304623 6.4986486 52 26 37
-24.155342 1.9766389 3.0323646 78 54 68
-27.919819 1.2395186 16.527212 84 45 63
-33.28275 0.6204898 31.249308 96 51 71
-12.728056 -0.57953906 20.30849 46 52 78
-12.79303 -0.5833221 20.437096 47 44 71
-23.413675 0.25563622 22.318098 98 50 72
-27.616087 2.0294867 6.472992 124 88 100
-13.752897 0.092162624 13.074811 48 31 39
-12.863814 -0.5998264 20.651995 105 100 123
-13.159397 -0.5087808 19.865686 46 37 64
-27.73798 2.030802 6.4868684 78 40 53
-35.968746 2.2056527 14.673722 73 35 46
-24.199791 1.9663329 2.992969 72 58 73
-25.705439 0.8846974 17.224367 136 90 101
-35.799618 2.1880665 14.470513 106 71 78
-24.236464 1.96626 2.8840222 79 64 83
-24.47104 2.0117714 2.5796854 86 63 79
-24.716461 2.0726104 2.1328738 87 63 79
-14.908736 -0.15015414 17.221489 72 52 63
-36.158184 1.9036777 17.292217 86 49 67
-20.532406 1.563233 3.14808 83 50 61
-24.125425 0.04005805 25.250828 97 53 68
-35.176033 1.5526288 21.18408 91 48 65
-24.383224 1.9943819 2.5973916 114 100 123
-24.62131 2.0342553 2.389078 131 115 128
-11.6462555 -0.9027318 22.33352 96 80 106
-14.9116335 -0.15731671 17.225676 106 86 95
-24.783363 2.059 2.2512748 128 114 131
-24.503922 2.010673 2.4797316 103 89 114
-24.536234 2.019384 2.390513 75 57 79
-24.573694 2.0271583 2.3410432 74 60 86
-34.734806 1.0608121 26.429329 137 90 106
-24.797398 2.0665977 2.0984895 91 73 97
-12.526188 -0.726395 21.01389 108 100 124
-11.920176 -0.8663211 21.94771 120 111 140
-13.402467 -0.525979 19.61826 108 96 108
-13.774951 -0.43367922 18.919214 105 85 96
-14.799427 -0.21842603 17.547525 43 36 44
-12.700761 -0.6657136 20.421213 89 80 109
-13.344926 -0.54767674 19.747984 55 57 72
-13.714243 -0.4787224 19.330748 91 81 92
-24.813505 2.065343 1.9379097 139 120 139
-11.841829 -0.8982035 22.136566 127 111 138
-13.943353 -0.44137117 18.974663 102 89 107
-14.577383 -0.25844717 17.506256 95 86 103
-13.241496 -0.59032226 19.876463 53 36 52
-12.942132 -0.6597826 20.308262 83 75 86
-12.902643 -0.6349383 19.937307 106 98 113
-12.986351 -0.6451759 20.15934 105 99 113
-11.66749 -0.93053246 21.947094 83 79 102
-24.36836 1.8306707 4.346309 111 61 73
-35.919937 2.0010288 15.361121 86 38 50
-21.139177 1.6328309 2.3738427 75 37 50
-24.896013 2.0592215 1.6930484 113 83 95
-33.41957 0.020805428 35.86096 85 45 56
-25.332115 1.1652393 13.473863 76 42 56
-33.627983 -0.0071953326 36.339367 87 46 62
-26.147884 1.4626486 10.772483 122 76 86
-33.66837 -0.03610588 36.53497 128 80 92
-17.317787 0.8320165 7.2979903 129 79 90
-34.388405 1.5428118 18.67399 108 60 76
-35.083645 1.113493 24.501703 102 54 70
-24.857674 2.0211008 1.9036617 70 47 65
-17.294874 0.81975245 7.329857 99 48 65
27.281971 -0.1693023 -33.528614 109 65 88
-33.415154 -0.057614993 36.27478 100 51 70
-25.007072 2.053559 1.6056331 101 77 93
-11.879136 -0.9520197 21.855274 126 107 126
-14.110425 -0.45165208 18.485905 103 89 104
-24.84047 1.9948381 1.8379982 79 60 79
-11.718183 -1.0041791 21.962908 111 103 124
-20.019054 -0.7025358 28.550278 106 81 87
-36.174004 1.9012241 15.624207 86 48 63
-12.751651 -0.785524 20.484642 82 67 90
-24.806086 1.974014 1.8775475 88 73 94
-12.754039 -0.7929593 20.48898 104 96 120
-13.734119 -0.5402808 18.664928 108 97 113
-11.628585 -1.0570457 22.21985 116 106 130
-24.8938 1.9617106 1.8816239 65 53 77
-11.640557 -1.0740083 22.134457 109 100 129
-13.416611 -0.6562649 19.291805 98 85 102
-24.356054 1.8276149 2.7632117 89 82 115
-24.713991 1.9184839 2.1026146 95 80 101
-24.796637 1.9283894 2.089433 127 114 131
-13.874836 -0.56403214 18.605295 62 58 73
-25.600239 2.0899334 0.68198526 89 65 79
-16.508314 0.6353107 7.5600557 154 121 140
-12.938309 -0.78337985 19.796211 117 111 139
-13.021998 -0.79477805 20.01628 111 104 135
-24.616943 1.7645166 2.9854465 86 68 92
-13.203189 -0.74965 19.586018 108 94 117
-12.534782 -0.9087367 20.559784 122 116 142
-14.265298 -0.5078514 17.7713 118 101 111
-25.567383 1.7127041 3.7152772 89 75 101
-11.688808 -1.1251248 21.94436 98 90 114
-12.118702 -1.0413355 21.36399 105 99 127
-11.958382 -1.079021 21.561304 105 95 122
-17.403353 1.2444729 1.1877515 110 71 100
-13.013941 -0.8523309 20.067749 97 85 107
-24.98405 1.9099675 1.6883342 117 99 111
-12.814455 -0.905485 20.3772 96 92 115
-12.796172 -0.18952867 12.1868725 52 29 37
-13.424512 -0.765985 19.148453 77 64 94
-14.551969 -0.53042233 17.645155 91 79 91
-23.247696 1.75246 0.93710047 110 83 98
-11.66044 -1.2077605 22.070915 101 85 121
-13.521188 -0.7610562 19.019712 79 62 78
-11.77476 -1.1871206 21.909855 128 123 153
-13.529627 -0.77014273 19.1061 76 64 84
-11.659355 -1.2111108 21.978235 120 105 136
-12.049438 -1.1248995 21.436768 134 121 147
-13.56232 -0.77422225 19.115202 116 100 113
-25.048405 1.8253443 1.897566 92 78 101
-24.895012 1.8303901 1.8834991 122 109 129
-13.251829 -0.85915923 19.378365 62 49 66
-12.10653 -1.1346668 21.194756 121 103 119
-13.250927 -0.86300313 19.374155 56 45 61
-13.523352 -0.8275415 19.253265 43 33 44
-13.037515 -0.91755694 19.683432 60 43 59
-13.884594 -0.7641055 18.708687 50 44 58
-24.530102 1.6855098 2.3435836 106 86 111
-13.305378 -0.89772886 19.121477 80 66 91
-15.228147 1.0633966 -0.028588898 108 68 77
-15.268087 1.0649375 -0.0068952185 114 72 82
-25.088165 1.8056825 1.5583208 115 100 121
-24.735514 1.7348285 1.9485314 85 60 82
-25.336132 1.8716809 1.0238394 94 70 84
-13.782503 -0.80678463 18.384052 71 62 81
-24.696918 1.7138454 1.995062 88 64 86
-25.083733 1.7904503 1.5277748 134 121 138
-26.746145 1.8582913 2.039641 99 75 89
-13.905605 -0.82140666 18.601183 85 78 96
-13.2787485 -0.9716092 19.423668 102 90 104
-25.348112 1.8421671 1.0512977 129 107 120
-13.805892 -0.83732545 18.383373 94 86 101
-25.064804 1.7690979 1.4457598 109 92 110
-25.717741 1.9064322 0.5881871 98 70 93
-25.26889 1.8180586 1.0661751 93 66 83
-25.363651 1.8232955 1.0989783 96 69 86
-25.060118 1.7442081 1.6133742 86 64 87
-25.528519 1.8504599 0.9347041 102 82 107
-11.586236 -1.373941 21.786633 65 58 74
-13.933654 -0.8574571 18.495293 57 45 59
-25.757809 1.8984387 0.59901226 126 101 123
-14.031132 -0.81457084 18.098347 60 40 49
-25.71557 1.8916318 0.5855397 110 87 107
-14.0669 -0.8260099 18.197868 63 47 58
-25.153843 1.753755 1.457593 102 80 101
-24.692257 1.6585144 1.9494572 138 119 138
-25.56665 1.8482504 0.77885824 129 111 125
-24.699629 1.6501995 1.9881992 98 69 87
-25.130417 1.7460886 1.3492426 144 118 131
-25.379822 1.8012667 1.0123426 146 126 138
-25.32433 1.7848232 1.1076704 144 123 140
-12.224655 -1.2933629 21.01715 102 95 113
-12.983321 -1.0984627 19.65568 105 89 99
-12.962004 -1.1561161 19.965897 68 55 73
-24.876976 1.6298416 1.9806341 76 64 86
-25.010502 1.6607865 1.794739 77 69 80
-24.776505 1.6242048 1.9405011 63 53 77
-24.99535 1.6642795 1.6983317 96 92 109
-25.089678 1.6879504 1.5442516 54 41 59
-25.497355 1.7802852 0.951873 84 80 95
-25.07222 1.6732789 1.6635821 76 67 94
-24.85745 1.6289678 1.9166481 123 119 146
-25.048115 1.6598752 1.735846 82 75 106
-12.900628 -1.1689409 19.916183 105 107 128
-24.513386 1.5680618 2.1818526 80 64 93
-25.12683 1.705855 1.3076191 106 99 115
-14.150162 -0.88241655 18.017365 92 85 103
-14.37225 -0.8354853 17.735144 50 42 57
-13.781314 -0.97755456 18.648134 107 98 117
-22.188046 0.8678381 7.0975003 82 41 55
-25.197239 1.7067792 1.2689432 114 86 101
-14.198127 -0.86128396 17.76711 83 73 82
-13.461163 -1.0544372 19.028305 74 63 79
-12.780282 -1.206002 19.918175 98 86 106
-14.698879 -0.8080625 17.355309 44 34 43
-11.456826 -1.5305656 21.672451 78 62 88
-24.76398 1.5678264 1.8730239 138 135 156
-12.818821 -1.2710433 19.72056 89 83 97
-13.9029875 -0.33618513 11.260702 50 24 23
