ply
format ascii 1.0
element vertex 1155
property float x
property float y
property float z
property uchar red
property uchar green
property uchar blue
end_header
-15.355056 3.039805 1.3919685 139 126 144
-20.074566 3.590845 1.0789179 115 90 111
-16.331102 3.1434176 1.4127458 119 93 106
-16.62636 3.1773891 1.4226509 132 112 124
-18.203978 3.3592734 1.330908 98 83 102
-3.3859618 2.2180896 -4.6278577 92 70 91
-19.999979 3.5749998 1.0959318 90 78 102
-3.3362727 2.2130365 -4.6828933 120 99 118
-15.220385 3.0180957 1.3873452 98 72 97
-15.321713 3.0289493 1.3842902 112 96 122
-18.256659 3.3600047 1.3282686 126 107 127
-20.058157 3.5782006 1.0848043 126 111 132
-21.150637 3.7144732 0.8784738 133 111 134
-16.302818 3.1292093 1.4152105 122 99 119
-18.249723 3.350041 1.3239889 97 79 105
-18.050251 3.3232074 1.3492235 103 79 103
-18.619505 3.3915246 1.2869105 83 62 79
-13.550842 2.81575 1.4279222 80 39 57
-17.274256 3.22659 1.3905846 125 101 115
-17.77469 3.2852855 1.362033 132 113 132
-17.265583 3.2242577 1.3990209 123 102 119
-17.852571 3.292738 1.3598076 111 83 105
-18.269005 3.3413742 1.3184112 100 75 105
-21.240099 3.711079 0.8471398 99 84 107
-18.259916 3.3389301 1.3272556 109 86 114
-14.571089 2.912635 1.506767 91 60 78
-19.688303 3.5095913 1.1423146 103 85 107
-21.145994 3.6943877 0.8746603 107 75 96
-20.547344 3.6116326 1.0005168 120 97 115
-16.08027 3.0771875 1.4240975 118 90 115
-19.932274 3.5299256 1.0985056 136 118 142
-19.203903 3.4359984 1.2132255 116 107 128
-13.457268 2.784442 1.403575 77 37 48
-21.47364 3.7191389 0.8039318 106 83 109
-17.274147 3.1960917 1.3933091 138 124 141
-20.201603 3.5500681 1.0618998 119 94 123
-20.21166 3.5520058 1.0522733 117 94 122
-17.211561 3.1755273 1.392767 92 70 93
-17.275938 3.1843424 1.3927499 134 120 137
-18.757042 3.358036 1.2761003 103 81 104
-21.281155 3.6764953 0.8439336 123 114 141
-19.874666 3.4927735 1.1125567 105 87 111
-21.281898 3.671642 0.8436793 83 72 104
-19.2139 3.4046545 1.2070842 124 116 137
-19.29713 3.414168 1.1955549 130 113 132
-19.787329 3.474658 1.1303667 106 80 105
-20.79027 3.601598 0.9443425 98 73 102
-21.056513 3.634045 0.891834 101 78 106
4.7628083 2.1298506 -18.307636 108 75 94
-20.083956 3.5017292 1.0795127 105 75 99
-21.271425 3.6542675 0.84510005 113 104 125
-19.547394 3.4310346 1.1716039 108 84 110
-19.465916 3.4207575 1.171113 113 83 107
-21.219995 3.6387918 0.85317624 73 57 83
-12.160987 2.612508 1.1398135 55 33 45
-15.037346 2.903466 1.3664689 114 88 113
-15.12662 2.9132025 1.3758382 153 129 151
-15.190505 2.9189003 1.3821747 121 91 115
-13.728118 2.7524514 1.4631754 146 102 119
-8.220856 2.306368 -0.5042051 127 86 100
-12.339032 2.618178 1.1841798 126 82 97
-21.27971 3.6377656 0.8392723 108 103 126
-8.160068 2.2969747 -0.5412606 88 44 59
-12.339247 2.6172166 1.184186 116 75 89
-17.269585 3.1383562 1.3905746 96 76 101
-19.31402 3.3811812 1.2055331 124 109 130
-21.320396 3.6362243 0.83247936 80 70 95
-21.783497 3.6963916 0.7321575 109 83 108
-12.377401 2.6120524 1.1936792 79 44 64
-16.822844 3.0832014 1.40811 138 114 128
-20.60504 3.5387728 0.9864888 109 85 109
-13.714254 2.7320404 1.4632398 128 89 107
-13.725158 2.7341309 1.4528716 146 105 123
-20.795366 3.556773 0.95516384 108 80 103
-12.319732 2.5961967 1.172952 69 33 45
-12.590745 2.6218104 1.2324657 131 87 100
-13.631316 2.7164214 1.4428968 78 33 53
-13.663548 2.7203603 1.4407624 88 45 62
-16.314653 3.0136752 1.413276 105 92 118
-12.844385 2.6343067 1.2900709 74 40 54
-18.524454 3.259384 1.2964 135 120 139
-20.409224 3.4917548 1.0248778 130 112 128
-19.275867 3.3498392 1.199645 75 57 81
-13.73174 2.7100782 1.4479067 74 40 57
0.7661799 1.8920878 -10.243248 73 49 73
-13.657273 2.6981852 1.4336665 153 110 130
-19.997179 3.4288902 1.0922176 60 43 61
-19.923723 3.4191854 1.0964109 122 101 116
-20.723536 3.519192 0.9523113 82 60 83
-20.842478 3.531486 0.9350441 86 66 91
-21.227158 3.5817032 0.8426038 128 116 138
-21.327478 3.5956082 0.83059543 72 58 84
-12.397771 2.572027 1.1911502 91 50 66
-14.167256 2.7482705 1.4429609 123 75 87
-17.478756 3.118452 1.3785454 111 87 111
-21.216904 3.5789602 0.8525947 131 122 141
-12.809615 2.608554 1.27971 71 37 51
-19.60712 3.3720903 1.1552333 138 123 144
-21.788868 3.6511858 0.7221703 135 122 139
-19.82352 3.397555 1.1156877 91 68 96
-21.310095 3.5861602 0.837438 121 112 131
-21.778408 3.6483846 0.7323718 129 118 135
4.2563257 1.9085858 -16.627346 113 82 90
-21.42458 3.5966952 0.801801 80 70 97
-19.91642 3.4016962 1.1052053 134 121 141
-21.290398 3.575528 0.8363485 72 63 92
-19.263367 3.3138452 1.2038261 138 124 141
-20.63777 3.4865787 0.97225225 115 100 119
-16.732841 3.012492 1.411623 113 96 115
-19.870518 3.3867323 1.1058546 109 87 110
-20.691347 3.487767 0.96462345 82 72 96
-20.602499 3.473789 0.98532116 101 79 102
-20.744308 3.4926832 0.95707 112 107 130
-21.287073 3.5633402 0.8408364 118 114 141
-17.919722 3.1418595 1.3466952 109 80 98
-21.203892 3.5445602 0.8582091 122 117 140
-16.988583 3.0274847 1.3940926 133 115 131
-19.503098 3.3245928 1.1686233 128 113 132
-21.418419 3.5697026 0.81072515 105 89 116
-15.847349 2.8827457 1.6069301 117 53 67
-20.145447 3.4051154 1.0652275 97 72 94
-20.862785 3.4914918 0.93117625 128 113 132
-19.464983 3.313424 1.1720918 93 69 91
-20.739424 3.4733553 0.9531652 138 119 138
-20.00272 3.3775203 1.0818151 78 54 76
-19.844578 3.350868 1.1119933 94 76 100
-16.061783 2.8848279 1.636034 138 95 105
-20.829304 3.4674928 0.94402367 115 104 121
-20.74266 3.4551528 0.9523518 60 51 68
-20.835724 3.461034 0.93874407 98 84 109
-2.5082037 1.9698876 -5.679519 130 106 119
-20.788378 3.4545043 0.9414434 82 68 91
-7.487512 2.1258304 -0.99101394 116 75 83
-17.77669 3.0686867 1.3567212 119 88 106
-20.020546 3.3393629 1.0913421 114 86 111
-20.598114 3.4039233 0.97600925 121 97 121
-20.39894 3.3767276 1.0151414 108 88 115
-19.802849 3.2998579 1.1237012 142 123 145
-20.349712 3.3678968 1.0298134 109 83 108
-2.7564652 1.9405273 -5.3901463 79 55 71
-11.131747 2.3660579 0.7364427 73 33 42
-17.580711 3.0286522 1.3641506 143 112 128
-22.912683 3.6983244 0.43689647 113 91 114
-21.711353 3.5354655 0.7468081 102 80 103
-22.88079 3.6918054 0.4478456 102 77 99
-20.492851 3.3773181 1.0025293 118 92 119
-21.024288 3.445321 0.90147907 116 91 112
-18.196617 3.0904613 1.3288937 121 89 110
-18.205849 3.09223 1.3200802 120 88 109
-18.505789 3.1271229 1.29262 143 121 134
-20.35716 3.3551295 1.0243605 116 88 113
-18.576082 3.1322236 1.284284 118 91 108
9.079351 2.4022524 -31.064217 113 91 114
-21.99258 3.558844 0.67500013 115 97 119
-18.616596 3.1277044 1.2815511 125 94 110
-19.561644 3.2435706 1.1561459 135 112 130
-19.900782 3.2854254 1.0996338 116 88 110
-20.451048 3.3557022 1.0119016 110 86 110
-17.55422 2.999432 1.3675891 118 85 102
-22.91739 3.6721718 0.43564904 109 85 107
-17.879585 3.0315309 1.3477389 128 97 113
-18.075314 3.0516276 1.3285012 117 84 103
-18.415073 3.0848358 1.3005382 113 81 96
-18.280996 3.065713 1.3111639 121 87 103
-7.387513 2.0509644 -1.0773126 116 70 81
-19.86056 3.2553546 1.1075865 109 88 107
9.422376 2.3669941 -31.716408 104 79 101
-18.01269 3.0302172 1.330185 119 86 103
-20.836847 3.3770998 0.936896 84 71 91
-19.56156 3.21407 1.1595308 124 103 120
-4.7103972 1.9273428 -3.2773736 70 43 52
-19.317158 3.1791904 1.1905046 71 42 60
-19.483717 3.2005615 1.1668977 77 52 74
-19.2472 3.169478 1.2007729 116 96 108
-19.708834 3.222812 1.1318032 95 66 86
-19.318264 3.1729305 1.190241 125 108 126
-20.765305 3.3537512 0.9426846 83 71 95
-11.136553 2.2942631 0.7344259 71 35 45
-18.26364 3.0381618 1.3067242 105 72 93
-18.563614 3.0754843 1.2788073 93 66 85
-19.056568 3.1350877 1.2243943 132 120 140
-20.571405 3.3248503 0.97800136 95 85 110
-19.88256 3.2349458 1.1003765 135 118 137
-18.577229 3.0733576 1.2778897 77 49 72
-19.938484 3.239439 1.1025139 108 90 114
-20.564108 3.3192782 0.9746704 103 95 119
-18.512482 3.063594 1.2814736 137 115 136
-19.557096 3.1910768 1.1551051 79 63 90
-19.294292 3.1566896 1.1919283 134 117 135
-17.614124 2.9542496 1.3644562 137 120 138
-18.922781 3.110026 1.2383548 88 69 91
-20.462645 3.3011243 0.9964962 72 58 84
-18.656816 3.073591 1.2728242 142 119 137
-5.394051 1.9219358 -2.6706362 76 34 44
5.361603 1.9373593 -20.766735 81 72 103
-10.959138 2.255807 0.6754687 71 35 45
-21.855053 3.4534223 0.83626014 108 94 107
5.310556 1.9360383 -20.623686 105 93 117
-17.28103 2.8914266 1.378984 100 75 97
-18.098825 2.9876442 1.3250127 144 122 145
5.1797824 1.9132634 -20.279528 57 49 73
5.2791944 1.9173381 -20.523893 61 45 72
-18.37453 3.008594 1.2999727 110 78 102
-19.9877 3.1984243 1.0831537 125 103 126
-17.695318 2.916107 1.3525014 97 73 99
-22.47514 3.5142553 0.55152774 110 78 102
-17.63978 2.9047687 1.3575637 138 119 139
3.7656608 1.7444232 -16.195862 87 70 102
-19.618982 3.1411812 1.1474084 138 115 131
-22.378942 3.488114 0.57471675 110 85 114
-10.077533 2.1344838 0.32331437 87 39 53
-10.490601 2.1592214 0.49203697 92 42 53
-2.6799242 1.7696661 -5.512807 50 32 44
-9.940191 2.1078176 0.2645581 105 58 78
-2.6924314 1.7662914 -5.498687 57 40 56
-17.835947 2.8915875 1.3434211 117 87 111
-18.779459 3.0037096 1.2579279 117 89 111
-16.583176 2.7123725 1.57893 119 94 113
-17.646006 2.8658679 1.3557941 98 79 101
-2.5049977 1.7387853 -5.727828 70 53 71
-15.785184 2.6282806 1.3900882 122 93 111
-15.844946 2.6336973 1.3858063 110 79 95
-17.577871 2.8260663 1.3512871 139 120 142
-18.436338 2.9261675 1.2978748 118 90 113
-17.613436 2.822382 1.3546659 117 95 118
-19.47568 3.0410628 1.1589125 76 57 79
-9.877452 2.043025 0.22199711 75 33 45
-14.82475 2.4936233 1.4501436 97 51 61
-10.631632 2.097904 0.52899706 85 41 54
-9.999828 2.0437686 0.2794093 64 26 37
-19.587505 3.0420156 1.1436813 153 131 144
-19.885761 3.0787573 1.1044362 145 122 140
-9.622924 2.012269 0.11385677 87 45 59
-10.502522 2.0793743 0.48419023 72 31 39
-21.350525 3.2647133 0.81697273 109 78 94
-22.538763 3.4212723 0.53364944 146 128 152
-17.29298 2.7623765 1.3689623 145 121 143
-4.7685113 1.7302521 -3.2593598 82 44 59
-17.701384 2.7972274 1.3474795 143 125 149
-18.31836 2.866882 1.2977357 111 93 107
-9.528524 1.984792 0.06278867 70 28 40
-17.69856 2.7864635 1.3513616 95 80 113
-19.505514 3.003696 1.1465434 115 107 128
-10.518202 2.0528843 0.48749933 105 68 76
-19.697248 3.026513 1.1320064 98 75 91
-22.636354 3.3663461 0.82395774 90 66 88
-10.984855 2.0869358 0.65932006 77 34 44
-17.086084 2.7093046 1.3837373 99 74 103
-17.38011 2.74082 1.3631471 140 133 151
-17.289875 2.7289789 1.3633465 91 79 103
-18.191446 2.832735 1.302491 104 91 119
-18.130438 2.8241014 1.3132842 91 76 105
-19.573088 2.999996 1.1397988 75 56 88
-19.787806 3.025908 1.1139015 72 53 75
-23.360847 3.4926662 0.30717447 115 90 111
-17.087776 2.7010565 1.3707069 135 123 145
-20.540096 3.1189568 0.97792554 120 107 127
-9.63278 1.9695783 0.10611018 116 66 77
-19.942625 3.0421476 1.0887023 67 41 66
-18.933744 2.915244 1.227061 134 125 144
-19.003922 2.9229631 1.2177012 76 58 84
-20.181284 3.070076 1.0484856 83 63 90
-19.051537 2.9277747 1.2183475 77 58 80
-9.593683 1.9606702 0.09047583 104 67 75
-20.586021 3.1175213 0.96743083 109 101 124
-21.796793 3.2718034 0.71956867 84 57 76
-22.427927 3.3561025 0.5553567 104 86 110
-9.155492 1.9241148 -0.1193562 78 37 51
-17.136877 2.695113 1.3747996 147 134 154
-18.948057 2.9094176 1.2258022 131 123 138
-22.732714 3.367827 0.7832317 125 106 126
-19.079227 2.921699 1.2159492 135 120 141
-22.346052 3.3385823 0.5838325 77 53 77
-11.340136 2.0897267 0.77902824 85 42 52
-22.689175 3.364217 0.77590257 88 60 83
-22.461391 3.3532104 0.54449344 108 84 108
-18.923077 2.8999865 1.2274017 90 78 102
1.455296 1.433346 -11.529122 123 99 115
-4.924402 1.6823773 -3.1318069 109 57 69
-9.072999 1.901534 -0.16747059 74 38 50
-9.15491 1.9071605 -0.11823862 72 29 39
-2.5189326 1.6206243 -5.7343297 65 53 73
-4.9379826 1.6794378 -3.1217294 107 54 64
-9.068339 1.9002882 -0.16301472 88 45 64
-20.11 3.0350175 1.0647546 136 115 134
-24.424305 3.6070285 -0.025362937 101 91 116
-14.904365 2.4186847 1.4503297 97 51 64
-22.867739 3.3909693 0.44839972 108 82 109
-24.458017 3.6072876 -0.038141735 143 147 176
-2.4436777 1.6100214 -5.8271804 85 77 90
-17.102932 2.66101 1.3731978 104 86 112
-17.065523 2.6478946 1.3724287 135 122 140
-9.261229 1.8935914 -0.07386822 117 71 81
-9.264202 1.8889061 -0.07651327 96 56 64
-5.241932 1.6645505 -2.860374 82 44 57
-5.1544495 1.656793 -2.9373248 69 35 49
-17.74138 2.7150948 1.3432391 122 94 117
-11.258795 2.0360384 0.74624926 107 64 71
-24.199497 3.541484 0.052517317 115 87 112
-8.875122 1.8419255 -0.27074444 83 37 50
-19.971394 2.9550562 1.0833653 112 86 111
-18.99677 2.8298092 1.2238848 95 70 91
-14.372207 2.2997675 1.3703562 79 45 59
-4.9674444 1.6077102 -3.1071956 105 53 65
-24.073408 3.4883003 0.09223185 129 101 123
-23.817156 3.447267 0.17536716 119 95 117
-15.709249 2.5052671 1.4380741 105 62 81
-4.9683475 1.595072 -3.1085732 97 49 61
-1.3993965 1.5231426 -7.188652 136 108 122
-4.932927 1.5847027 -3.144879 108 63 70
-14.400941 2.2802968 1.3731532 76 38 51
-11.497273 1.9974775 0.81403047 115 75 84
-14.376015 2.2745035 1.3692021 76 42 58
-15.253066 2.365517 1.4919977 92 68 82
1.3142084 1.4435128 -11.433992 118 101 119
-13.742934 2.205405 1.2914962 84 40 55
-14.418679 2.2736688 1.371038 112 66 77
-20.73847 3.0029407 0.9355721 122 105 124
-20.809582 3.012331 0.9213782 96 92 107
9.521417 2.0342138 -33.756565 93 71 92
-5.025088 1.5562575 -3.0712807 92 62 72
-17.475365 2.5924733 1.3517869 137 115 128
-16.716825 2.5009542 1.3778944 107 74 93
-18.969025 2.7684734 1.2115654 122 121 139
-19.47772 2.828272 1.1487983 62 44 68
-5.0754843 1.5474497 -3.0271204 78 37 51
-20.760668 2.9844153 0.9279071 100 96 111
-22.560104 3.2200987 0.51936984 116 92 114
-24.531307 3.467819 -0.061495714 173 186 220
-8.689762 1.7362732 -0.38701984 135 85 96
-4.9787006 1.5397341 -3.1203132 113 63 72
-20.62204 2.9628448 0.9637107 91 64 83
-19.64214 2.835672 1.1286341 121 109 129
-21.3304 3.047236 0.82114345 134 111 131
-10.648638 1.8697602 0.5265806 138 121 113
-17.990599 2.6274602 1.3241391 132 118 141
-10.521696 1.8568953 0.47924465 132 100 103
-10.776334 1.877642 0.5724236 127 107 108
-20.16405 2.894316 1.042532 89 76 96
-20.895206 2.9875052 0.90850323 73 54 76
-24.568848 3.4572968 -0.06721175 170 184 219
-5.7242746 1.5547642 -2.4680295 58 26 37
-12.638113 2.0416753 1.1367805 117 68 87
-21.305134 3.037503 0.8251095 85 57 82
-4.173498 1.4952273 -3.9026215 61 28 35
-20.230612 2.8977127 1.0344613 120 106 131
-21.52514 3.0652986 0.77249104 60 34 59
-13.038124 2.078367 1.1772231 118 67 84
-21.870737 3.1076217 0.6918281 82 59 75
-14.411497 2.2120934 1.3701811 129 91 106
-24.564808 3.4468253 -0.06206394 155 164 195
-22.934797 3.240482 0.42489752 64 52 74
-18.720953 2.69559 1.2562844 116 92 116
-14.522651 2.2105079 1.377129 81 49 64
-4.1384187 1.4740665 -3.9434743 104 59 66
-7.0814137 1.5951673 -1.3538082 102 65 73
-14.396122 2.1948295 1.3585325 75 43 58
-18.652048 2.6812527 1.2644303 144 125 144
-14.388722 2.192856 1.3656888 76 45 60
-17.912926 2.5895846 1.3295267 93 65 88
-22.498056 3.1692302 0.543925 130 115 134
-14.481906 2.1991692 1.3750318 122 78 91
-14.558232 2.205864 1.3858165 80 44 58
-3.3419523 1.4450748 -4.793919 85 38 46
-14.435492 2.1908891 1.3638687 120 77 87
-14.499261 2.1956878 1.3730288 121 71 83
-3.828248 1.4506559 -4.2673745 55 31 44
-18.506334 2.650111 1.2762396 123 91 114
-4.0020285 1.4562542 -4.0849786 104 59 64
-14.652403 2.2067275 1.3940574 104 64 73
-14.691556 2.203929 1.3988671 75 40 46
-20.198692 2.8511646 1.0374082 100 74 99
-3.953955 1.442031 -4.13872 64 27 34
-17.895664 2.5633063 1.3248678 90 65 87
3.0272365 1.5060446 -14.686631 51 46 66
-20.160583 2.8387825 1.041756 123 98 120
-22.332182 3.120001 0.58458716 108 82 107
-24.110868 3.3152208 0.020708254 143 112 128
-3.3803976 1.4204946 -4.7548194 109 58 63
-17.845972 2.5447705 1.3256612 116 90 115
-18.398216 2.6055222 1.2890481 140 112 134
-13.843259 2.0814066 1.3667792 66 35 50
-3.4081995 1.397808 -4.731004 73 30 39
-3.40728 1.3975767 -4.7302275 68 27 35
-22.762745 3.1484668 0.46896645 142 118 132
-22.562193 3.11845 0.530614 135 111 127
-10.519855 1.7688032 0.4541849 59 30 32
-3.5712812 1.3879515 -4.5545955 73 35 46
-10.507909 1.7640884 0.4489384 52 28 24
7.1743712 1.7925322 -24.675 124 109 128
-22.484701 3.0951884 0.54604006 135 114 129
-19.90126 2.7478197 1.0865501 113 89 111
3.3110218 1.4423032 -15.297845 108 77 93
3.123518 1.4329498 -14.905927 144 123 138
7.530277 1.7998706 -25.702688 102 77 98
-21.606876 2.946923 0.75294733 104 70 87
-17.857916 2.4762683 1.322864 137 125 147
-3.1013813 1.3294597 -5.090798 109 53 66
-22.425777 3.0454025 0.5573414 107 80 99
-17.560427 2.4321787 1.3402048 140 117 137
-17.206089 2.3890762 1.3577728 145 118 137
-21.421015 2.9097753 0.796149 123 99 115
-18.713697 2.5659277 1.2444005 69 42 57
-20.869644 2.8323858 0.90967244 84 62 75
-3.453226 1.315274 -4.699941 79 36 46
-10.359659 1.6829877 0.39172915 162 144 122
-10.351066 1.674732 0.38359275 197 181 156
-21.54224 2.9001222 0.7674959 97 82 111
-9.682172 1.617319 0.08105891 159 137 126
8.724526 1.891631 -29.186253 91 73 97
8.639625 1.8832115 -28.956266 97 73 95
-9.630233 1.6107342 0.059732642 183 164 150
-10.41236 1.6669333 0.41162506 190 175 152
-20.888191 2.8054461 0.90655875 131 114 133
-19.838566 2.6672268 1.1000035 141 124 142
-10.388522 1.6575264 0.40091413 173 160 141
-19.556807 2.630367 1.1447617 103 79 101
-20.903122 2.7978275 0.90425915 81 59 82
-10.215314 1.6358259 0.32659626 166 149 133
-10.374681 1.6468045 0.39787823 214 203 183
-24.171114 3.0146286 0.2169163 149 128 147
-20.420162 2.7280247 0.9988594 103 84 106
-10.335427 1.6376989 0.38449574 175 159 144
-20.138063 2.6849284 1.0497302 103 79 103
-21.410713 2.848928 0.792885 112 87 108
-10.22729 1.6212661 0.3338503 222 214 193
-14.846455 2.053729 1.4215304 60 34 47
-20.516827 2.7278557 0.97364044 133 110 130
8.338922 1.8012794 -28.056217 120 107 125
-9.364147 1.5549521 -0.059925936 123 94 86
-21.428102 2.842898 0.79831314 131 112 131
8.757799 1.8493236 -29.322195 116 99 118
-9.404552 1.5531243 -0.043925717 125 101 75
-10.300248 1.6199437 0.3680324 192 176 160
-21.388893 2.8351896 0.80464405 138 121 137
-9.345389 1.5451657 -0.07738065 165 147 127
10.968655 2.1648543 -36.50829 127 118 145
-9.3290825 1.5363269 -0.07937505 171 152 135
-21.198002 2.7980027 0.8513134 133 113 125
-21.208416 2.7999787 0.84134674 134 114 126
-21.462484 2.833536 0.7883721 128 111 127
-21.436333 2.828266 0.7926177 125 108 124
2.0422807 1.1120921 -12.485886 86 53 62
-10.170518 1.589891 0.32129687 226 214 192
-15.918573 2.1443427 1.4616853 70 32 43
-7.2411103 1.3863033 -1.3118539 74 34 45
-9.283901 1.5183386 -0.10740856 174 157 139
-10.012 1.5746992 0.24725498 171 150 133
-22.59628 2.9691062 0.5186145 127 108 127
-8.048771 1.4317156 -0.7886428 76 36 44
-9.282015 1.5142171 -0.10529787 175 157 143
-22.610518 2.9663663 0.51573014 103 81 102
-23.16375 3.0352237 0.36609408 104 72 95
-10.155475 1.5695283 0.32013452 214 203 183
-22.98763 3.0054686 0.4166255 102 77 99
-9.259614 1.4954817 -0.11865344 175 156 141
-9.993462 1.541697 0.25025553 158 141 125
-10.090245 1.5488161 0.29717642 224 214 189
-24.407766 2.9988773 -0.010028723 134 115 134
-9.260867 1.48667 -0.119057685 184 167 149
-10.0050745 1.5491647 0.25624642 169 150 133
-12.675705 1.7400596 0.8443138 68 32 44
-5.121153 1.2485284 -3.0452607 64 31 40
-23.78839 3.0947642 0.18195434 114 84 108
-10.555905 1.579299 0.43778706 215 204 176
-21.490814 2.7841299 0.77891165 95 70 91
-10.101936 1.5364803 0.30465794 207 195 173
-10.646634 1.5835062 0.47011408 198 191 165
-9.25031 1.4728984 -0.12594493 180 163 145
-9.663237 1.5019683 0.07380237 172 157 128
-20.343496 2.6332774 1.0068994 98 66 87
-10.0528345 1.5288042 0.28241664 158 141 125
-21.213867 2.7424502 0.843914 112 85 102
-9.263465 1.4686923 -0.11985045 177 162 141
-10.535306 1.5671238 0.42459524 208 197 169
2.9917474 1.0934242 -14.725155 87 60 79
-10.532711 1.5657907 0.42721507 192 178 151
-9.938656 1.5250881 0.21682708 184 166 144
-10.701084 1.5772471 0.48682746 196 181 162
-10.5584345 1.5627829 0.43713486 160 143 117
-9.23737 1.4586767 -0.13057499 112 79 70
-9.635528 1.4844064 0.06607698 158 146 122
-10.131722 1.5239253 0.3125349 185 170 149
-13.033976 1.7038921 0.9367805 86 40 50
-16.445599 2.1411881 1.4844797 93 42 51
-10.030222 1.5121324 0.27070874 151 130 113
-10.194495 1.5242499 0.33952618 217 206 188
-9.263287 1.4532193 -0.11819851 165 148 130
-9.897031 1.4965816 0.20602152 151 133 113
-9.902214 1.497559 0.20112382 161 140 121
-10.155688 1.5133796 0.32546577 176 160 144
-14.804579 1.9543102 1.3772343 86 40 51
-21.535868 2.761329 0.77113765 79 61 77
-9.639688 1.4738778 0.06325749 154 138 115
-9.991953 1.49803 0.25597695 180 162 138
-10.473616 1.538965 0.40080497 159 137 113
-22.944172 2.9461577 0.42564484 100 79 98
-9.25482 1.442088 -0.12725803 116 88 74
-24.49132 3.0632775 -0.046777736 112 87 108
-10.072735 1.4980626 0.2841483 187 174 157
-10.184318 1.5085639 0.3335338 227 219 200
-10.067535 1.4966791 0.28914276 183 168 149
-10.727352 1.5521307 0.49825972 169 154 133
-15.455058 2.014493 1.4240446 98 53 73
-9.280757 1.4366348 -0.114906244 177 161 138
-9.454709 1.4499041 -0.027758192 125 94 73
-10.115576 1.4932415 0.3134281 152 133 119
-23.716843 3.0375266 0.19891626 89 63 88
-10.282898 1.5037241 0.3786183 195 182 166
-10.057013 1.4832274 0.28310046 174 157 141
-20.236284 2.5747688 1.0274616 135 112 130
-9.269903 1.4250497 -0.12167183 99 67 54
-21.383453 2.720535 0.8041254 95 70 92
-10.488296 1.5371186 0.3878379 162 136 113
-10.639235 1.5309507 0.46580273 164 143 116
-10.71435 1.535858 0.495463 204 189 166
-10.814058 1.5457727 0.53453124 217 207 180
-20.88944 2.6548934 0.9041179 110 99 116
-10.199967 1.4883487 0.3381087 176 163 144
-14.44112 1.890347 1.3376452 89 50 68
-9.593841 1.4443337 0.0383386 117 96 75
-10.264864 1.4935337 0.36248505 217 209 186
-10.870307 1.5474461 0.54821736 154 136 122
-5.004412 1.1775423 -3.1633956 121 77 90
-10.194783 1.4865531 0.34317312 157 136 117
-10.256866 1.4916145 0.3701303 212 201 181
-10.77766 1.5356556 0.51971906 167 152 133
-15.322787 1.9794904 1.4184351 93 55 76
-20.10962 2.5488262 1.0504328 142 121 140
-20.124598 2.5516622 1.0361179 143 121 142
-5.0793395 1.1789668 -3.0949416 91 45 58
-9.42039 1.4272379 -0.04702918 148 122 95
-9.557867 1.4326383 0.019923072 161 143 119
-23.800909 3.0307336 0.17899933 132 114 136
-10.678916 1.5198413 0.4801764 206 194 168
-10.803688 1.5314442 0.5292282 222 212 187
-18.681746 2.3479908 1.452174 138 91 109
-10.020061 1.4610101 0.26818144 159 139 114
-10.246365 1.4781548 0.364282 196 182 169
-10.879127 1.5345905 0.5579325 215 205 178
-9.446916 1.4181436 -0.035131067 142 117 87
-10.134497 1.4701194 0.3155123 186 174 150
-10.336098 1.4853888 0.3990438 210 196 183
-10.110357 1.4633896 0.30431727 174 158 135
-10.237206 1.4739788 0.35622832 202 190 174
-9.37395 1.401796 -0.07268557 155 134 117
-10.034469 1.4491673 0.27329284 129 104 82
-10.712967 1.508279 0.49985662 199 187 165
-15.956987 2.0241272 1.4541714 79 37 51
-8.477976 1.333279 -0.5524333 89 53 67
-10.348315 1.4697865 0.4062956 167 151 136
-14.168501 1.8293784 1.3051912 142 94 108
-10.112447 1.4501606 0.3038499 164 146 124
-14.781643 1.8911982 1.3791586 145 99 110
-4.0374784 1.110753 -4.11817 79 38 46
-10.162894 1.4490687 0.32557398 141 119 98
-10.7645645 1.5019126 0.5190825 162 146 131
3.556746 1.0035454 -15.807861 89 77 89
-10.337342 1.4595929 0.40068159 209 197 175
-20.44938 2.556368 0.9837241 99 81 103
-10.213432 1.4476018 0.3471101 179 165 139
-19.79946 2.4718702 1.095824 91 65 90
-10.166717 1.4422336 0.32279262 174 158 132
-10.8099985 1.4977474 0.5436371 187 179 158
-10.298043 1.4519604 0.38718304 180 162 138
-10.376191 1.471713 0.38059664 205 193 177
-9.429496 1.3840586 -0.05101499 129 104 82
-10.299451 1.4603664 0.35125983 163 146 128
-15.999016 2.0080607 1.4560479 74 30 43
-3.9778676 1.095976 -4.1851406 103 65 76
-10.920537 1.4998809 0.58922726 198 187 165
-10.362299 1.4618026 0.37758043 205 197 178
-3.8280482 1.085435 -4.3426447 71 34 42
-16.051554 2.0063305 1.4591386 111 64 70
-16.09412 2.0113604 1.4576092 111 66 73
-24.094036 3.0248759 0.087470725 133 114 134
-10.2409115 1.4494979 0.32178584 170 154 131
-10.621927 1.4659092 0.5057032 170 152 138
-10.328395 1.4547818 0.35906097 182 169 150
-10.406287 1.4585661 0.387893 170 153 137
-10.257216 1.44368 0.32435524 141 123 101
-14.199652 1.7988381 1.308243 78 34 47
-3.2538621 1.0574551 -4.974271 85 35 44
-10.635846 1.4577786 0.5104091 222 211 189
-10.77859 1.4689693 0.5594417 136 126 135
-10.831337 1.47332 0.57618177 97 78 80
-14.833503 1.8629501 1.3756367 79 35 48
-15.33816 1.9157012 1.4123883 77 41 51
-10.561798 1.4478606 0.4799929 157 139 115
-10.707091 1.4609315 0.5272232 111 90 85
-19.721523 2.4308453 1.1072187 148 130 146
-2.8539274 1.0384109 -5.439607 94 43 52
-10.271429 1.433689 0.3293234 118 91 64
-14.129082 1.7806776 1.2917153 131 83 95
-24.184622 3.016297 0.060947005 135 116 135
-15.374986 1.9048961 1.4195095 97 64 71
-15.4003315 1.9089177 1.4220848 118 78 87
-20.465248 2.5162 0.9852128 130 109 126
-10.746961 1.4484011 0.54145634 111 87 75
-22.811998 2.820828 0.45708767 124 103 122
-24.05931 2.990605 0.096070305 140 117 137
-8.473849 1.2774409 -0.5617222 72 32 40
-10.486666 1.4274753 0.45146388 127 101 76
-10.539808 1.4278445 0.46918547 163 146 120
-14.44745 1.8018644 1.3291261 87 46 62
-10.707473 1.4406292 0.52921295 179 161 141
-8.484659 1.2742407 -0.5526365 60 25 32
-10.844327 1.4532372 0.58303994 165 146 129
-15.537754 1.9150132 1.4261888 85 43 55
-3.1941187 1.0264888 -5.0469327 142 89 99
-10.605569 1.4290782 0.4918242 121 95 78
-3.0574603 1.0194627 -5.206355 81 44 61
-12.7300005 1.5651343 0.87627816 87 54 61
-2.8947425 1.0155847 -5.397252 82 34 46
-16.051205 1.9595605 1.4527614 85 47 60
-14.345011 1.7735109 1.3165926 88 50 71
-24.42785 3.0186665 -0.024920633 135 113 134
-2.4211872 0.9914774 -5.9779906 74 32 42
-2.9728463 0.9955148 -5.3104525 82 45 62
-24.493534 3.0053785 -0.03773917 138 114 136
7.237775 1.3754903 -24.916044 117 100 118
7.065961 1.3558574 -24.4699 125 107 131
-19.763933 2.3756397 1.0975595 77 51 76
-19.785973 2.3742337 1.0994793 80 54 81
-16.217546 1.9312172 1.4565234 73 33 44
-16.316454 1.93873 1.4659419 111 68 77
-2.9896278 0.9629268 -5.2980275 81 39 49
-19.775675 2.3577743 1.1002158 84 56 79
-23.034395 2.782545 0.3934338 125 107 131
-16.325134 1.9391088 1.457926 111 64 72
-20.328522 2.4281352 1.0052577 151 131 142
-21.508314 2.5800557 0.7696635 102 75 94
-10.575697 1.3686802 0.40978995 110 85 63
-21.691921 2.6011972 0.7306228 137 111 122
-23.023651 2.7788925 0.40401366 127 111 138
-16.368906 1.9380124 1.4556121 74 34 43
-10.307611 1.339291 0.32373142 114 89 58
-10.313002 1.3403046 0.31863403 103 77 52
-10.385182 1.3459569 0.35291865 64 43 24
-20.130413 2.3960936 1.0410696 115 93 116
-16.35343 1.9271632 1.4586802 110 63 73
-23.025475 2.7695673 0.40359694 131 116 137
-16.353706 1.9259557 1.4586674 120 70 79
-23.050688 2.7697005 0.38992584 125 112 129
-20.429546 2.420887 0.98827195 91 76 95
-22.813175 2.7328634 0.44822353 116 99 115
-22.986809 2.7568202 0.41181806 90 63 82
-10.391206 1.3266878 0.3497522 133 112 91
-14.465112 1.7102631 1.3388565 139 91 105
-20.3604 2.4024258 1.000871 98 82 108
-19.681202 2.3165793 1.1047342 90 71 103
-20.276701 2.3897686 1.0151538 130 119 136
5.940086 1.1859452 -21.49497 112 97 118
-21.530233 2.5509565 0.7741105 101 80 89
-14.403087 1.6950233 1.3289351 78 40 53
-10.380894 1.3128173 0.34412673 98 68 57
-10.293594 1.3052399 0.30700666 105 77 56
-9.932318 1.2723285 0.14687577 98 64 39
10.393077 1.6964916 -34.683098 138 124 141
10.517354 1.705285 -35.075626 108 93 116
-10.159326 1.2761015 0.2469764 107 75 50
-8.494305 1.1483132 -0.56594366 90 47 64
-10.13289 1.2666352 0.2382961 153 132 105
6.2620625 1.0421875 -22.369041 139 125 140
-2.3719904 0.8824874 -6.0635924 70 38 53
-20.419516 2.3760097 0.9930643 103 76 95
-10.133058 1.2658583 0.23830408 154 133 104
-14.192836 1.6409723 1.2935205 81 35 46
-18.55245 2.1246107 1.4068365 73 40 51
-12.734578 1.3820171 0.8360532 94 50 67
-21.732027 2.535014 0.7231526 117 102 121
-21.043571 2.4444308 0.8745619 138 113 132
-21.52276 2.50565 0.7665321 107 95 119
-23.919628 2.8282847 0.13437317 113 87 112
-14.994797 1.7035996 1.4239553 129 76 94
-14.995052 1.7024754 1.4239466 110 55 74
-14.88997 1.6878898 1.4148893 109 52 69
-8.475173 1.1120796 -0.5812891 67 27 36
-15.042483 1.6998975 1.420836 115 62 82
-2.3010974 0.8482756 -6.1604285 68 30 41
-7.3317924 0.8872064 -1.4049901 122 74 88
-15.034796 1.6978626 1.4282625 105 50 69
-10.474735 1.2541189 0.46736932 200 193 187
-14.954916 1.6872215 1.4226408 140 92 106
-14.666678 1.6554278 1.3804585 131 77 90
-15.1456995 1.7033361 1.4324256 157 106 123
-19.36405 2.203087 1.1570648 94 69 88
-8.1668005 1.0781544 -0.76625645 91 39 52
-14.603936 1.6445767 1.3713702 100 47 57
-14.841621 1.6690905 1.4079623 142 94 108
-8.166927 1.0775448 -0.76624846 74 31 41
-8.400981 1.0918239 -0.62318337 81 40 56
-11.094509 1.291395 0.6997458 142 130 132
-15.054164 1.6852056 1.4256146 116 63 83
-10.346825 1.2259871 0.4038445 131 126 122
-14.961879 1.6713718 1.4184481 91 43 59
-11.085969 1.2853662 0.69220966 171 161 159
-14.882249 1.659479 1.412448 142 92 104
-10.302993 1.2207154 0.37730393 168 162 150
-10.878533 1.2663043 0.6246613 204 200 189
-15.038902 1.6757536 1.4275981 153 107 120
-10.591277 1.2352488 0.5129863 99 89 88
-10.727335 1.2495161 0.56845534 143 129 126
9.144723 1.4323136 -30.642183 122 108 133
-9.818368 1.1773648 0.1253557 194 185 178
-10.236516 1.2091566 0.3552696 171 161 149
-11.034392 1.2746109 0.6761772 111 101 100
9.353693 1.4574233 -31.298275 126 107 127
-24.466543 2.853877 -0.038290653 139 114 135
-10.299672 1.2076578 0.3820938 195 188 172
-10.3364315 1.2135696 0.3982523 168 162 148
-10.904766 1.260655 0.6341261 126 115 121
-11.146944 1.2805775 0.71782994 222 217 198
8.656134 1.3594555 -29.127937 127 113 138
-10.297147 1.2063577 0.38465583 182 173 158
-10.788189 1.245036 0.59563196 212 209 202
-15.040298 1.6637136 1.4145526 96 43 53
-10.639598 1.2307069 0.5357636 156 146 144
-15.032617 1.6616813 1.4219749 89 38 47
9.80047 1.5107152 -32.765755 105 90 113
9.684349 1.4902227 -32.33029 105 87 113
-10.325637 1.2033857 0.39269438 141 133 122
-10.906396 1.2514808 0.63390595 197 194 187
-11.136375 1.2689224 0.71296716 188 180 161
6.5998907 1.126679 -23.278906 92 73 93
-10.749432 1.2340313 0.58333343 151 139 151
-9.818459 1.1618418 0.12743181 191 180 158
-11.065203 1.2603505 0.6823811 155 147 136
-11.139594 1.2681835 0.71020025 170 157 140
-10.94785 1.2478536 0.6453764 138 131 139
-10.994992 1.2497194 0.66706324 119 111 122
-15.745876 1.7285329 1.4300187 84 37 47
-14.950176 1.6382724 1.4069791 114 69 74
-24.55184 2.8434372 -0.060168426 131 113 135
-10.087663 1.1719661 0.2755842 96 85 81
-10.617714 1.212128 0.5252466 170 165 169
-3.7073126 0.85382 -4.6646085 58 26 31
-14.926104 1.6282227 1.4035864 83 34 40
-10.337329 1.1766685 0.40252936 133 120 112
-14.247955 1.5528328 1.2971362 79 36 43
-10.106837 1.1596359 0.2939248 144 130 119
-11.008764 1.2297903 0.6897558 161 152 157
-9.760492 1.133128 0.09758988 124 99 79
-10.510031 1.1871424 0.49437684 117 103 94
-15.634566 1.6957656 1.4196788 77 31 42
6.1329894 1.041679 -22.051216 105 87 113
-23.52244 2.6760256 0.25642768 135 116 138
-23.827776 2.7148602 0.16882639 137 115 136
-22.78424 2.5729415 0.457861 114 91 117
-10.884809 1.2021722 0.64431906 62 48 45
-10.999337 1.212216 0.6846613 98 84 73
-10.674115 1.1840168 0.5604218 45 30 23
-11.07389 1.2181666 0.71286356 100 88 72
-5.2779393 0.84319484 -2.9737256 67 28 33
-10.44229 1.1599258 0.45999694 57 39 27
-22.780405 2.5633552 0.46275258 149 125 147
-9.737256 1.107248 0.08766506 143 126 110
-23.789476 2.6993566 0.17792991 140 113 132
-1.2433745 0.7394791 -7.603081 72 36 50
-19.754347 2.1639965 1.1029805 116 88 103
-23.634577 2.627069 0.8250371 108 83 105
-20.333622 2.2361379 1.0058393 99 76 96
-20.787046 2.2897122 0.92212796 127 114 132
-9.265296 1.0654522 -0.19953306 134 120 117
-21.657484 2.4019277 0.7389746 129 111 123
-9.488398 1.0760837 -0.048947114 135 117 107
-20.053629 2.1935534 1.0421833 76 61 82
-10.223222 1.1267407 0.34513682 61 42 35
-10.7154455 1.1641074 0.5749645 104 99 105
-10.739999 1.1676067 0.5849789 86 81 88
-10.5229845 1.1468037 0.48825625 62 47 50
-10.584986 1.1519426 0.5139935 102 91 97
-10.643954 1.1580037 0.5421278 69 59 70
-21.252867 2.3445683 0.82076025 134 113 132
-10.536052 1.1441615 0.49335366 101 87 84
-11.071221 1.193626 0.68642026 113 98 105
-10.830984 1.1681077 0.6166749 124 119 123
-20.768116 2.2754974 0.92038345 92 68 94
9.09761 1.3194282 -30.519709 86 69 88
-10.5956955 1.1465398 0.52163416 149 139 130
-20.156088 2.194485 1.0347488 77 56 75
10.17396 1.464454 -33.975937 90 82 103
10.149665 1.4581245 -33.85809 71 63 86
5.887283 0.97657865 -21.421453 79 66 92
-17.691912 1.8840898 1.412899 110 65 72
-10.054769 1.0989866 0.26478672 134 126 115
-16.973955 1.7958454 1.4306449 69 24 31
-22.023119 2.4276807 0.6626275 111 98 118
-10.199074 1.1058972 0.33636618 135 119 94
-22.034012 2.428947 0.65233815 129 114 137
-21.636093 2.3724983 0.7423418 92 70 93
4.098569 0.831292 -17.17642 92 84 99
-9.883205 1.0738168 0.18469451 75 54 59
-16.23573 1.6961921 1.4603469 115 58 73
9.70483 1.3753715 -32.412308 86 86 114
-9.849485 1.0662458 0.16473654 74 59 66
-21.491606 2.3464434 0.76605535 84 69 90
3.5415254 0.7970699 -15.979115 119 95 111
-9.813274 1.0578221 0.14710908 121 110 118
8.33792 1.1945407 -28.21768 125 101 115
9.704258 1.3632368 -32.415012 123 119 142
-21.488157 2.3365402 0.77072614 70 49 68
-10.850973 1.1277992 0.6207342 149 135 109
-11.352503 1.1739042 0.7697321 114 101 111
-20.891476 2.2163098 1.3110771 128 115 132
-21.470951 2.327165 0.7776127 83 58 77
-21.502731 2.3315303 0.76829606 71 47 69
2.7523599 0.7401391 -14.346807 83 61 73
-19.73169 2.1000702 1.099891 141 117 133
-11.355782 1.1731519 0.76691395 112 96 106
-1.317768 0.66819483 -7.515957 106 49 64
-9.513753 1.0183287 -0.010555217 135 128 135
-19.857166 2.1036465 1.0829827 122 91 106
-19.867033 2.105501 1.0735571 117 89 104
-9.578088 1.0106249 0.01988679 79 61 57
-7.792637 0.89553934 -1.1318579 79 32 42
-8.384216 0.9255432 -0.6597131 83 37 48
-11.477679 1.1638597 0.8000686 83 62 59
-8.3864765 0.9253128 -0.66170025 62 26 38
-9.536616 1.0041687 -0.01165837 57 38 32
-11.474857 1.1624104 0.802934 73 49 47
9.6275 1.3141654 -32.22167 72 67 90
4.982345 0.83905137 -19.253853 133 112 127
-10.188221 1.0494316 0.30377084 48 34 34
-24.05457 2.6577332 -0.024742322 109 86 104
-14.459258 1.4572574 1.3114876 116 69 75
-9.20187 0.9742518 -0.19974694 103 81 68
-10.161405 1.0432644 0.29519838 71 58 49
-9.523427 0.9935897 -0.015612142 120 102 78
-12.312944 1.2545741 0.5232407 97 49 61
-21.732454 2.326386 0.7214959 146 123 139
5.4688215 0.86180127 -20.426119 135 112 122
-10.220119 1.0432688 0.30955392 126 114 88
-14.528096 1.4571673 1.3172827 75 33 43
-20.2725 2.135845 1.0117767 134 114 125
-22.492481 2.4225097 0.54085594 153 135 151
9.271443 1.2495506 -31.089312 96 84 108
7.499664 1.043262 -25.815638 119 104 127
4.1721215 0.77102596 -17.368998 63 51 73
-19.201862 1.9963882 1.1788145 103 76 91
-19.779093 2.0645614 1.0945467 108 85 114
-21.74796 2.316924 0.71877164 158 137 154
-22.612368 2.4272552 0.5088564 145 124 143
-19.331306 2.0024776 1.1600199 137 117 129
-21.730864 2.306792 0.72580445 118 94 116
10.969528 1.4735012 -36.756607 122 114 138
7.7460537 1.0506603 -26.509531 124 105 124
-1.4567126 0.6126238 -7.342701 133 85 107
7.735567 1.0378512 -26.461138 90 75 98
-23.54958 2.5404012 0.25034654 163 145 161
-21.614006 2.2785294 0.7453282 144 125 145
10.794749 1.4333868 -36.173954 87 83 110
-17.98632 1.8079246 1.4383916 94 60 77
-20.323467 2.1094275 1.0010674 138 118 129
5.809963 0.84857297 -21.29188 114 94 105
-7.7313166 0.82943416 -1.0656021 99 55 70
-20.001125 2.066477 1.0544007 119 107 129
11.008088 1.4572871 -36.87596 126 113 141
-0.9181397 0.59423935 -8.125533 105 66 87
2.092789 0.6317657 -13.095861 114 93 108
-1.5125098 0.58928883 -7.273793 113 64 83
-18.394783 1.8457483 1.4075807 147 110 118
-1.5128362 0.5894663 -7.2741504 110 66 91
-19.012648 1.9302564 1.2042238 80 53 68
-18.451946 1.8490297 1.4007744 108 82 95
-18.837048 1.8958977 1.3720471 110 65 85
-19.611448 2.003206 1.1140541 95 81 106
-20.012272 2.0523243 1.0571766 88 68 96
-20.022203 2.0541892 1.0476893 82 59 87
5.6322837 0.81680715 -20.859566 108 90 106
-18.050339 1.7942613 1.4404397 87 44 61
-18.427155 1.840426 1.4017274 69 48 63
1.8387814 0.60892177 -12.619282 81 62 82
4.5675545 0.73096013 -18.294163 83 66 82
-18.475376 1.8401155 1.4036938 105 78 95
1.6411928 0.59758127 -12.250349 75 56 75
-2.982121 0.592005 -5.4080186 80 42 53
-19.249372 1.9425625 1.1655507 133 118 141
4.257515 0.70744747 -17.59317 81 67 84
-15.9552145 1.5449203 1.4203969 74 31 41
-16.403889 1.5949042 1.4224163 77 36 50
-19.367825 1.9537693 1.1560241 128 111 130
-20.390974 2.083244 0.99666405 153 132 149
4.606973 0.72274613 -18.393063 103 98 118
-19.16293 1.9227244 1.1803544 94 74 101
9.687356 1.2223772 -32.445045 73 63 88
-18.991064 1.8905534 1.4127195 131 102 122
-1.5311364 0.55642253 -7.256619 79 39 50
-8.126144 0.8133567 -0.8237196 76 24 37
-8.06508 0.803691 -0.8621923 125 77 89
-15.97095 1.5315691 1.4209193 91 47 62
-18.06876 1.7680362 1.4391928 77 35 49
-0.8894943 0.5446043 -8.182607 125 83 97
-24.263748 2.5801888 0.038606346 121 87 103
11.403844 1.4525647 -38.278637 116 106 130
-23.121561 2.3316927 0.9090053 140 116 130
-20.151731 2.0288548 1.0412198 127 99 114
-20.214361 2.037218 1.0256732 118 95 111
5.7133193 0.7770754 -21.07693 86 81 101
-18.049494 1.7559862 1.4352134 124 93 109
4.9282417 0.715003 -19.153538 53 41 53
-3.5120595 0.5985065 -4.856662 92 53 71
-20.280922 2.0416334 1.0178832 148 126 138
4.8277273 0.7029405 -18.920036 105 81 97
-15.830309 1.4933476 1.413614 94 50 63
5.7065787 0.7598923 -21.080732 84 81 100
-8.208944 0.78641546 -0.780214 82 40 50
9.185333 1.1159713 -30.908672 133 116 135
-8.209084 0.78580534 -0.7801973 89 45 58
9.0937395 1.0972866 -30.60275 76 67 94
9.062985 1.0901489 -30.501154 80 67 93
5.3352404 0.71724504 -20.149973 109 100 117
8.516437 1.0207471 -28.853697 47 39 62
5.81041 0.7540516 -21.332123 83 75 99
5.1302867 0.70197964 -19.669123 106 103 124
-11.8752 1.0637974 0.8619451 77 41 53
-12.210914 1.0965074 0.93686074 95 51 66
5.847018 0.75049174 -21.447334 121 110 126
-1.6529939 0.5077214 -7.09932 153 100 118
-10.117264 0.90357316 0.22157642 74 37 44
-11.805312 1.0465958 0.8347995 98 57 73
4.876224 0.6670428 -19.055141 111 91 103
8.408733 0.9827961 -28.518778 64 50 101
8.293343 0.9694725 -28.19701 155 156 213
7.523142 0.8888413 -25.956505 141 165 225
2.6957915 0.54381055 -14.295862 53 39 56
8.403524 0.9855969 -28.52425 54 43 111
-19.811045 1.9306196 1.0849278 141 119 132
8.8562355 1.0147116 -29.916119 123 123 149
4.9620676 0.6496786 -19.252487 30 24 38
8.750803 0.99836373 -29.569498 48 50 99
8.670002 0.98924863 -29.329397 133 127 191
2.707768 0.52363956 -14.32055 35 27 42
8.91558 1.0174787 -30.115927 103 90 118
7.155486 0.81818867 -24.935598 18 31 83
-7.0549498 0.65188056 -1.5360941 123 73 82
11.50654 1.3770169 -38.729477 103 80 98
8.647763 0.9789326 -29.285845 154 150 209
7.255802 0.8256794 -25.233482 164 190 251
-7.017473 0.6422906 -1.5613834 93 45 59
-7.020902 0.6426679 -1.5645398 114 59 78
2.8106768 0.5093838 -14.538992 97 81 92
-20.113075 1.9377689 1.0359138 100 78 101
8.600298 0.9570033 -29.139423 69 74 138
7.3023796 0.8192147 -25.357567 55 68 138
2.8895082 0.50737894 -14.704664 47 37 48
-19.189207 1.8044304 1.3327922 152 101 116
-6.980877 0.6285523 -1.5867857 160 108 121
-8.741505 0.7401176 -0.4511667 130 73 88
5.0649185 0.6168997 -19.52587 67 58 79
-8.741657 0.73946023 -0.45114955 119 61 73
10.746224 1.2221905 -36.064976 105 87 113
-19.844181 1.8840216 1.0724115 132 118 135
5.1619906 0.60644126 -19.764719 71 60 77
-6.96914 0.6073053 -1.5925859 80 30 39
-6.9724765 0.6079263 -1.5957232 89 36 44
5.047546 0.5967209 -19.490557 55 38 54
4.467858 0.559396 -18.132402 108 92 105
-19.778536 1.866743 1.0914248 79 61 85
-19.872728 1.8761097 1.0693699 131 123 144
11.431915 1.3060081 -38.474934 109 91 117
6.663832 0.7180484 -23.578243 104 91 111
5.4951634 0.62438554 -20.565844 95 88 104
4.709392 0.5681142 -18.683033 122 107 128
4.6511803 0.5648638 -18.553164 119 107 129
3.7160072 0.51177156 -16.455359 47 33 46
-19.65701 1.8440489 1.1071036 114 88 113
-19.68363 1.8453821 1.1045887 105 77 102
4.934795 0.5754069 -19.215664 58 53 73
-19.851767 1.8626946 1.0797583 98 75 95
4.4608893 0.5409456 -18.134432 62 45 61
4.467435 0.5397411 -18.128454 70 52 66
-20.457035 1.9310608 0.9908003 71 121 218
-21.038944 2.0060935 0.8791379 85 132 224
7.0898733 0.73967916 -24.759579 107 97 122
5.8842707 0.6322027 -21.541142 112 103 122
-21.39374 2.0491605 0.79620993 127 99 113
10.141895 1.0889894 -34.010113 130 112 134
6.4134283 0.673049 -22.954535 97 79 105
7.9278035 0.8208191 -27.192081 158 170 228
7.155976 0.7428231 -24.974834 78 81 126
6.295573 0.66169727 -22.644629 133 119 142
7.9852757 0.82160395 -27.374895 46 36 99
-21.22588 2.0197392 0.8304253 114 93 112
10.063742 1.0710719 -33.79771 73 63 88
7.9259787 0.811444 -27.191425 163 181 245
8.7196455 0.8918058 -29.575462 76 69 113
5.551239 0.582005 -20.747017 128 115 135
0.11874336 0.36946332 -9.842058 141 91 102
-21.269176 2.007289 0.82370967 130 101 119
5.8510046 0.59840834 -21.512419 127 113 126
7.1286926 0.70245796 -24.93368 39 43 88
-21.038864 1.9664118 0.8746155 83 129 223
-6.7625055 0.52791125 -1.7391542 141 88 104
-22.360643 2.1395667 0.5738039 103 71 86
5.0001793 0.51500607 -19.41964 71 58 78
-22.474604 2.145015 0.547768 140 118 131
2.8380861 0.39533725 -14.645574 74 61 78
-21.010612 1.9458271 0.88274217 44 87 192
6.264156 0.5987311 -22.604322 129 107 120
-21.038195 1.9435648 0.8787236 80 126 222
7.285531 0.68761677 -25.395584 39 53 128
5.4029093 0.5270748 -20.383177 67 53 66
-21.123682 1.9496306 0.8620133 67 83 170
8.641594 0.8265261 -29.377932 129 126 173
-21.114082 1.9439777 0.8717802 58 90 191
9.644181 0.95037985 -32.5054 116 106 131
8.721916 0.8336719 -29.61824 54 43 77
7.1635118 0.6682179 -25.05693 94 107 159
-21.0537 1.9340801 0.8763885 80 126 222
-24.177273 2.354144 0.056963347 150 124 135
5.6958804 0.5347111 -21.140165 93 63 73
8.580116 0.8109879 -29.18159 144 140 201
7.268156 0.6728716 -25.351027 153 178 245
7.14742 0.659135 -25.01352 22 36 83
9.893071 0.969824 -33.301838 120 104 130
-21.261168 1.9537653 0.82874423 137 110 125
-21.055992 1.9229401 0.87596625 80 124 221
7.000851 0.63157964 -24.590488 52 41 58
8.929955 0.8336262 -30.24652 29 34 56
6.273837 0.5598898 -22.634964 119 107 129
9.989294 0.9668781 -33.62488 130 118 142
5.41148 0.49671063 -20.461575 118 106 130
-21.04545 1.908289 0.87738425 86 129 221
10.049574 0.9680004 -33.846245 120 105 134
10.157709 0.980454 -34.238716 112 107 129
11.458276 1.1692687 -38.718025 116 102 128
-19.480568 1.6814405 1.3960234 116 67 88
-19.490345 1.6832658 1.386688 104 55 74
-19.542545 1.6876707 1.38211 73 32 48
-20.933348 1.8862413 0.88909954 48 83 177
7.4521637 0.65333974 -25.904976 140 157 213
-12.473122 0.95874006 0.2243131 117 70 90
9.457527 0.8778787 -31.916977 118 109 136
8.226764 0.7320911 -28.137417 120 110 160
-12.526417 0.9619295 0.23769684 97 53 70
11.365978 1.1432776 -38.405415 126 114 136
11.381542 1.140449 -38.391605 119 109 133
10.788992 1.0561475 -36.343063 124 106 130
8.279305 0.73603183 -28.330795 26 20 48
5.793953 0.5028424 -21.435217 85 64 83
-21.76532 1.990215 0.7097932 125 99 110
-19.981287 1.733738 1.3097695 120 82 93
7.4500203 0.6447179 -25.903532 26 28 51
9.401084 0.85515267 -31.76141 116 110 138
-4.4034877 0.35233483 -4.1745267 98 51 71
-24.368391 2.3291903 0.0055588135 113 84 102
-21.021646 1.8785425 0.8722192 118 95 105
8.455899 0.738964 -28.838436 36 40 69
8.42613 0.7350814 -28.74225 46 43 74
-18.99544 1.5989112 1.4536705 76 36 47
8.418356 0.7276843 -28.74592 105 99 125
-13.928892 1.0156041 1.3961836 92 45 63
7.26637 0.60567755 -25.384113 40 37 64
-18.93718 1.5847234 1.4530368 128 81 97
10.670515 1.0098481 -35.99178 123 108 131
-15.819484 1.1783934 1.2533233 138 92 105
-20.820732 1.8410107 0.9044066 117 97 109
-21.145433 1.8828101 0.84152293 123 95 110
-24.17871 2.288784 0.065135844 103 71 84
10.620632 0.99310774 -35.812473 108 92 118
-11.430742 0.82478476 -0.07023946 116 80 90
-18.101444 1.4423313 1.2352779 81 47 61
-18.925941 1.5751088 1.4535985 78 50 65
-15.765431 1.1646333 1.2527907 107 57 69
7.084519 0.5718198 -24.874252 81 75 103
-15.773632 1.1655602 1.2451044 85 43 57
-19.534586 1.6467923 1.3737276 96 57 76
-11.4984455 0.8233994 -0.049265046 86 47 65
-20.894613 1.8371979 0.8899415 106 91 120
-19.491968 1.6356344 1.3815901 135 96 114
-21.03234 1.8527893 0.86628187 75 55 83
-21.108818 1.8629894 0.8468066 80 69 99
-21.527435 1.9149685 0.7656383 97 77 102
-21.537956 1.916934 0.75558364 97 77 104
-17.12466 1.4048729 0.7255036 139 99 108
1.8856397 0.24561845 -12.825926 57 37 48
-24.780985 2.3502696 -0.12905322 114 89 108
2.3792007 0.2591583 -13.774658 72 52 63
-19.471544 1.6211429 1.3916616 113 70 90
2.376888 0.24956656 -13.773618 115 95 107
11.468788 1.0916028 -38.824856 135 125 149
-6.8690286 0.39478046 -1.6423793 154 107 125
-22.23616 1.9864854 0.60101444 147 127 138
-24.132677 2.24351 0.07663524 114 89 110
-6.060627 0.33681443 -2.2877436 111 62 81
9.387632 0.77475864 -31.80075 112 107 130
2.804434 0.24039623 -14.627859 40 34 44
5.4735165 0.38403028 -20.653633 112 92 104
4.215849 0.3042622 -17.662766 85 72 82
8.609435 0.6744747 -29.34435 88 79 108
5.6017146 0.38997367 -20.97672 69 51 63
6.8435884 0.4862009 -24.190351 44 40 55
5.9105024 0.4079837 -21.741438 101 89 103
-14.284679 0.9850416 1.4397151 103 60 77
7.4116993 0.5311545 -25.834011 95 91 114
-17.875057 1.4398705 0.69270754 81 42 60
-17.883926 1.4415225 0.6842613 95 52 69
5.22447 0.34537974 -20.04977 105 94 111
3.1421492 0.23092571 -15.318737 94 86 107
-17.482426 1.3262804 1.5736434 74 41 48
7.1587167 0.49730203 -25.103506 58 41 59
7.436781 0.52043736 -25.918274 54 46 67
-17.710056 1.3484912 1.564151 132 89 98
-14.938992 1.0306879 1.5156729 72 42 52
-15.498523 1.0908333 1.5636226 142 94 108
-14.4652 0.9780387 1.4554064 123 77 87
7.9772086 0.5664045 -27.460495 60 48 68
7.7272525 0.5439247 -26.746565 66 61 81
-10.219425 0.5744895 0.31025428 99 51 65
-15.137119 1.0482591 1.5320083 117 74 81
-17.77154 1.350517 1.5548563 77 40 47
-17.331205 1.294261 1.5853039 75 42 53
-4.5399337 0.23550779 -4.0753155 96 51 71
-17.02078 1.2558187 1.5845219 92 45 63
-4.427665 0.2090112 -3.826117 94 52 64
-10.171502 0.5631928 0.2880297 135 87 101
-14.52207 0.97645605 1.4723636 87 46 64
-14.7604885 1.0018973 1.4951129 81 39 51
-15.230877 1.0522012 1.538573 66 33 42
-4.42616 0.20860733 -3.8246398 86 44 56
-16.125755 1.1486614 1.586293 114 72 96
-4.4876385 0.22373146 -4.1213837 141 88 104
-11.539817 0.7323871 -0.03581266 118 78 104
-16.05887 1.1373007 1.5857557 135 102 121
-9.981125 0.59716076 -0.606188 89 56 73
-21.87662 1.8745502 0.6860599 80 64 93
-2.9523187 0.15530702 -5.4943733 67 32 36
-2.952733 0.15538318 -5.4947586 88 43 48
-10.12136 0.5495902 0.2681222 95 48 64
-16.022734 1.1239593 1.5828178 100 61 80
-4.560429 0.23241472 -3.9495392 93 49 66
-2.9792154 0.14853476 -5.4639363 103 58 65
-16.022985 1.1227688 1.5827938 113 70 90
-3.0553896 0.1410598 -5.373051 89 39 51
-21.815792 1.8393633 0.6964197 105 83 104
-21.842354 1.8427273 0.6918738 91 73 95
4.6091967 0.23544355 -18.614096 107 86 105
-15.466658 1.036662 1.5499516 86 43 60
-24.314085 2.1602423 0.024248201 149 128 143
1.3981633 0.09221151 -11.97878 75 62 72
4.08693 0.18606617 -17.423866 49 36 56
-24.78758 2.2128818 -0.13379936 104 77 86
-28.094154 2.6372933 -0.6441397 149 160 192
4.05791 0.16659273 -17.354603 42 33 52
4.014193 0.16472375 -17.26324 42 33 50
5.3309307 0.24416351 -20.381376 108 95 113
-23.806065 2.065885 0.16782787 116 92 108
8.55008 0.5283068 -29.252419 114 106 129
10.114325 0.7114773 -34.262527 119 96 106
6.688565 0.3115036 -23.91793 103 92 106
2.6887813 0.06579088 -14.46535 79 75 89
9.295953 0.5797442 -31.631252 118 104 119
9.25435 0.5653514 -31.466324 75 62 82
10.558774 0.73118746 -35.769558 91 75 101
