ply
format ascii 1.0
element vertex 170
property float x
property float y
property float z
property uchar red
property uchar green
property uchar blue
end_header
0 0 0 255 0 0
-0.4264146 1.080063 -3.491379 57 57 57
-0.42523474 1.0126677 -3.2744648 100 100 100
-0.4284288 1.1314789 -3.675897 84 84 84
-0.4241022 0.89778817 -2.9236639 40 40 40
-0.4303704 1.1741089 -3.8687606 154 154 154
-0.42618275 0.82280993 -2.717359 127 127 127
-0.43433496 1.1867988 -3.9850152 131 131 131
-0.42651692 0.79367006 -2.6576197 130 130 130
-0.43427962 1.191653 -4.072842 123 123 123
-0.43337128 1.178667 -4.0913935 136 136 136
-0.42440197 0.82173073 -2.810719 65 65 65
-0.42439398 0.8710463 -3.0452197 139 139 139
-0.43094745 1.1359227 -4.019696 151 151 151
-0.42249963 0.96810585 -3.447314 89 89 89
-0.42641047 1.0929638 -3.9062085 99 99 99
-0.42245346 1.0303036 -3.6858804 59 59 59
-0.6405653 -0.36729747 1.8691877 110 16 104
-0.6396654 -0.34401667 1.7862128 180 27 179
-0.6419316 -0.3421113 1.7828478 148 10 147
-0.6396547 -0.36833733 1.909944 141 10 142
-0.57990164 0.323513 -1.5993462 173 181 36
-0.5799873 0.32721594 -1.6259218 171 173 48
-0.57926667 0.31752533 -1.5766488 181 189 42
-0.6420487 -0.32682535 1.7635957 125 19 127
-0.64029664 -0.36051574 1.9333488 143 14 140
-0.5803118 0.32762992 -1.6593952 147 149 24
-0.5802479 0.3062443 -1.5474997 61 55 0
-0.6422383 -0.31832147 1.759198 96 0 101
-0.5816457 0.3215525 -1.6837554 178 184 36
-0.5806695 0.29453996 -1.5347894 78 80 0
-0.64055496 -0.34211254 1.9338503 125 11 125
-0.5806584 0.3141938 -1.6907213 38 33 0
-0.5812273 0.2850984 -1.5328804 40 39 0
-0.58182675 0.30584347 -1.6918247 76 79 0
-0.64038247 -0.3128878 1.872947 110 1 108
-0.6416852 -0.30617675 1.8451517 95 10 95
-0.58222705 0.27239552 -1.5579742 48 46 0
-0.5824985 0.29011875 -1.6721965 75 82 5
-0.58280015 0.27900723 -1.6419321 91 94 0
-0.58199745 0.27065212 -1.5915695 36 40 0
-0.5828387 0.27321255 -1.6156735 41 35 0
-0.40803364 -0.14405769 3.3747098 88 0 0
-0.3678005 -0.27931243 7.5498514 91 16 10
-0.43605545 -0.44690198 -9.398608 115 50 10
-0.43840086 -0.34587416 -7.339342 159 84 27
-0.44506273 -0.5315847 -10.809373 156 86 26
-0.46592295 -0.6056389 -11.579241 79 30 0
-0.46473843 0.022453574 -0.21718842 145 76 21
-0.47294688 -0.6697902 -11.680034 144 75 33
-0.48038757 -0.7114789 -12.16886 96 34 0
-0.47229138 0.1065258 1.1175866 163 78 11
-0.47846097 -0.76052314 -12.179136 161 76 12
-0.47774133 -0.8227924 -12.466884 182 99 29
-0.46875423 0.0710457 0.52766645 157 90 35
-0.45335612 -0.16391465 -2.7329202 140 73 18
-0.47353345 -0.91716886 -12.892664 179 109 47
-0.4450239 -0.56964064 -7.889455 105 59 10
-0.4555257 -0.93803555 -12.608312 110 54 19
-0.45039746 -0.83361965 -11.165473 78 20 0
-0.61704904 0.3239224 1.9104161 49 169 168
-0.6162231 0.3292972 1.9378816 0 54 61
-0.61485356 0.34097394 1.9706868 13 117 110
-0.6170136 0.32202202 1.8472886 12 210 211
-0.61798286 0.32624257 1.8228834 38 140 142
-0.6132599 0.3565211 1.9910232 30 162 167
-0.6174821 0.33280188 1.8160027 0 118 109
-0.61239254 0.3657674 1.9946275 12 143 138
-0.61667556 0.34115583 1.8189374 43 153 154
-0.6118372 0.37279075 1.9862959 42 162 161
-0.61512613 0.35542196 1.8359753 9 109 111
-0.6125841 0.36729124 1.8673184 4 117 111
-0.6128437 0.37272248 1.891227 35 182 176
-0.6108972 0.3785946 1.9207848 0 63 67
-0.15918592 3.3317995 9.763925 18 94 19
-0.10428796 3.684715 10.764412 0 91 0
-0.041793987 4.1707335 12.020937 17 140 16
-0.0061843693 4.413046 12.502084 32 151 33
0.0005930068 4.46372 12.454224 18 152 17
-0.24855806 2.721819 7.5042806 13 101 14
0.005124363 4.483757 12.329708 0 66 0
-0.22478457 2.8928976 7.826907 16 151 13
-0.05128838 4.0852714 11.031497 3 117 4
-0.18187459 3.1652744 8.464693 3 86 4
-0.15233956 3.4141686 9.118245 38 157 39
-0.11997593 3.633797 9.71079 0 69 0
-3.6880689 3.3381603 -2.3408315 125 125 125
-3.705463 3.310126 -2.380404 141 141 141
-3.6483266 3.336308 -2.2672555 173 173 173
-3.6946566 3.2349496 -2.3810287 158 158 158
-3.5679293 3.2932549 -2.133412 73 73 73
-3.6494784 3.1368494 -2.3277025 113 113 113
-3.5872808 3.0526903 -2.247408 85 85 85
-3.4201548 3.148559 -1.894428 161 161 161
-3.524944 2.9859924 -2.1585038 142 142 142
-3.359691 3.0670354 -1.8161091 183 183 183
-3.4345772 2.9121258 -2.018495 89 89 89
-3.3109229 2.974367 -1.7531565 153 153 153
-3.3028347 2.9066427 -1.7799621 179 179 179
-3.3549552 2.8760364 -1.8924239 93 93 93
-3.3186538 2.8797865 -1.8224976 170 170 170
-5.083279 -0.14792727 -2.6668274 80 0 77
-5.098677 -0.43227172 -2.5209036 133 21 123
-4.8511105 -0.19263753 -2.5906997 87 0 80
-4.726982 -0.30358842 -2.505849 78 0 74
-1.4965487 1.8235754 4.0837135 164 161 46
-1.4904886 1.8292129 3.983968 155 160 31
-1.488605 1.8065071 4.197632 161 161 37
-4.6709585 -0.5076747 -2.3911762 111 23 109
-1.4584928 1.8117961 3.8689063 110 109 3
-1.4536558 1.7662164 4.3541956 67 60 0
-4.692866 -0.5542897 -2.373485 104 0 108
-1.411542 1.7287621 4.463111 92 90 15
-1.4127618 1.7868093 3.852668 39 37 0
-1.3693006 1.7528284 3.8833683 169 171 44
-1.368418 1.6990709 4.5186834 133 133 3
-1.3274751 1.6710178 4.53655 187 185 50
-1.3246809 1.7205114 3.9377708 57 54 0
-1.325723 1.6728317 4.537985 105 101 10
-1.2766091 1.6451896 4.499135 151 150 32
-1.2726462 1.6781232 4.0596313 111 110 0
-1.2361432 1.6458341 4.222292 141 144 37
-1.2390678 1.6313407 4.4115376 102 105 14
-1.23061 1.6336541 4.317028 134 136 9
0.3900827 -0.05230661 2.0247262 146 66 17
0.38421276 -0.07237522 1.9841082 162 76 25
0.41078532 -0.023652073 2.088266 149 76 31
0.44342592 -0.013346913 2.1502821 120 58 9
0.45732903 -0.16542292 1.9660014 146 74 24
0.5038733 -0.013019186 2.2320144 100 48 9
0.501804 -0.1886851 1.9932284 120 57 13
0.54139423 -0.019607188 2.268876 84 22 0
0.54049736 -0.19684228 2.031406 158 86 28
0.5846797 -0.042953335 2.295334 113 56 13
0.5992765 -0.20009412 2.1035428 171 92 36
0.63422894 -0.083544806 2.2971115 200 107 38
0.63764423 -0.17433406 2.177516 78 28 0
0.65861434 -0.12924328 2.2714164 76 12 0
0.6542954 -0.14958633 2.231068 37 13 0
0.10437278 -2.8690066 0.62940943 42 158 158
0.08581298 -2.90731 0.62439233 30 167 160
0.14468305 -2.8354177 0.64882874 39 175 173
0.23013245 -2.795237 0.6970646 0 103 94
0.09890866 -2.952321 0.6409732 23 160 153
0.13623787 -3.010935 0.67991215 2 108 108
0.3082334 -2.7853875 0.74615 21 154 151
0.18990207 -3.021319 0.71456873 8 88 89
0.36615345 -2.7883854 0.78437084 21 123 125
0.2295734 -3.0279353 0.74088037 10 127 121
0.4241411 -2.8083367 0.82614857 19 145 141
0.3339673 -3.0052125 0.80036116 0 77 75
0.41273096 -2.9702463 0.8443932 46 148 153
0.4407284 -2.9332087 0.8544549 21 162 171
0.4698 -2.8972256 0.8671221 0 78 72
2.6688027 -1.2185531 3.1806583 17 148 16
2.6806448 -1.1744901 3.2217817 32 141 34
2.691669 -1.2956078 3.1396825 2 60 0
2.7183828 -1.1096916 3.2988791 27 140 26
2.7343035 -1.3195451 3.165661 0 104 0
2.7651763 -1.0722308 3.3667204 0 72 0
2.802174 -1.0539768 3.407863 1 95 9
2.7622726 -1.311183 3.18517 21 118 23
2.8004642 -1.2921163 3.2271132 0 105 0
2.8296092 -1.0449276 3.4256775 0 85 0
2.870733 -1.0648197 3.4489167 36 183 43
2.8435318 -1.2487311 3.293933 29 137 26
2.8724594 -1.0588236 3.440692 20 126 15
2.8855064 -1.1846178 3.368128 41 146 45
2.8939564 -1.1070747 3.429735 28 130 30
2.8916981 -1.1468 3.4045494 5 147 1
