ply
format ascii 1.0
element vertex 51
property float x
property float y
property float z
property uchar red
property uchar green
property uchar blue
end_header
0 0 0 255 0 0
-3.7378361 -9.718791 64.70101 145 3 3
-0.13424711 0.19532542 -1.7683581 193 112 11
-0.3818855 0.47629887 -4.077958 20 20 1
-0.23560716 0.21355624 -2.7292888 17 17 1
1.5636294 0.9480022 -12.833009 75 89 3
1.4126542 0.87814355 -11.949231 151 116 8
1.4937189 0.94833493 -12.984017 149 115 9
1.3902736 0.8875192 -12.157612 172 102 9
1.1618592 0.80947536 -11.336692 143 119 8
1.0781246 0.75594556 -10.592925 176 94 9
1.0977885 0.8063679 -11.427979 144 114 8
0.8851372 0.75514615 -11.023746 140 115 8
0.8439454 0.7515783 -11.051649 163 105 9
0.7878641 0.75436634 -11.23132 147 113 8
0.70604694 0.6996435 -10.476786 142 111 8
0.6455799 0.6456545 -9.673023 171 98 9
0.39628637 0.4467496 -6.8071713 143 108 8
0.49116126 0.5638023 -8.605603 176 93 10
0.52702487 0.633439 -9.733231 145 106 8
0.29931417 0.35781345 -5.4891486 170 98 10
0.4631862 0.5849171 -9.040695 149 108 8
0.4213844 0.538459 -8.3263645 177 93 10
0.39793026 0.5415606 -8.436115 160 101 9
0.3532615 0.47904125 -7.4520555 182 85 10
0.25223908 0.41380382 -6.561987 166 96 9
0.22801681 0.40980822 -6.5483804 173 89 10
0.21655244 0.4133539 -6.64072 136 106 7
0.15892307 0.33765998 -5.4595594 164 97 9
0.13434978 0.32358295 -5.2727633 169 89 9
0.072459005 0.22566745 -3.7240782 170 93 10
0.04841552 0.18009135 -2.9913008 172 90 9
0.04342483 0.18977296 -3.1737118 142 105 8
0.021352261 0.11880777 -1.9988304 147 102 8
0.019962443 0.12098575 -2.037879 175 89 10
0.004385562 0.0627341 -1.0698361 151 97 7
0.003710493 0.059591394 -1.0162665 177 89 11
0.06095429 -0.09545134 1.7868825 165 93 10
0.073067136 -0.10558961 1.9892956 153 96 9
0.07060904 -0.099902615 1.8839194 173 88 11
0.10425809 -0.10661422 2.076287 174 79 10
0.14614905 -0.14211299 2.7853947 142 96 8
0.19457522 -0.17634153 3.483962 150 94 9
0.20186117 -0.15932964 3.2057936 175 77 11
0.2667282 -0.2016974 4.0895295 140 96 8
0.2555947 -0.19089821 3.8743544 171 81 11
0.2822217 -0.20115146 4.0916195 185 137 13
0.27813786 -0.19332998 4.0776725 5 106 5
-0.96768034 -0.44247714 -9.799736 44 44 0
-2.4657912 2.731277 21.810816 3 94 3
20.094894 49.486694 319.3874 70 90 2
