ply
format ascii 1.0
element vertex 45
property float x
property float y
property float z
property uchar red
property uchar green
property uchar blue
end_header
0 0 0 255 0 0
0.21153647 0.76460505 -5.553976 146 3 3
0.08767649 -0.048654787 -0.065136865 137 126 5
0.6829406 -0.4972745 4.9127045 1 1 1
0.6751751 -0.4832511 4.8436947 18 18 1
-1.3676023 -0.8106602 10.528654 128 120 7
-1.4325337 -0.8539948 11.097715 168 109 9
-1.396865 -0.84341604 11.006049 163 111 10
-1.3897518 -0.8687185 11.467491 150 114 8
-1.3300427 -0.9075684 12.282174 158 107 8
-1.3278434 -0.9664456 13.294423 153 111 8
-1.2553493 -0.93105054 12.858132 166 105 10
-1.1793555 -0.889494 12.333896 161 104 9
-1.3478534 -1.048548 14.67072 154 108 9
-1.0249188 -0.8146717 11.4428625 146 112 9
-1.2838552 -1.1054873 15.793876 164 105 10
-1.4012206 -1.2513148 18.022232 160 104 9
0.7593505 0.75563735 -11.174588 156 102 9
-1.4159629 -1.3847507 20.287155 159 104 9
-1.5585059 -1.5700513 23.128233 151 109 8
-1.4406735 -1.4859574 21.991394 143 109 8
-1.9274552 -2.0931692 31.245152 159 101 8
-1.7244198 -1.9349723 29.007812 167 99 10
-2.438305 -2.9824536 45.31397 157 101 8
-2.216466 -2.8180363 43.008457 152 107 8
2.907715 3.9943821 -61.646225 163 98 9
0.5258784 -0.2904181 3.5821118 17 17 1
-3.380028 -4.970886 77.233505 166 95 9
2.1517565 3.42702 -53.79764 162 98 9
-2.1090667 -3.8777518 61.57459 161 93 9
0.91749966 2.0001626 -32.278305 147 105 8
-0.49404672 -1.1257901 18.140776 162 91 8
-0.6872961 -1.7181417 27.862066 171 93 9
0.09387556 0.31398878 -5.2311063 155 97 8
-0.1825279 -0.8669493 14.440624 175 92 10
0.04409903 -0.034588583 0.6528407 155 88 8
0.04158395 0.0015773792 0.021032346 162 86 8
0.03749166 0.010766756 -0.14772254 169 87 10
0.03429326 0.015633823 -0.23980641 167 87 10
0.028511744 0.023515776 -0.39004382 153 93 8
0.016967334 0.03488895 -0.6155893 170 142 10
0.01932065 0.0330644 -0.57401806 4 105 4
1.1409878 0.51988554 8.570773 74 74 1
0.70481956 -0.78095645 -7.720509 2 93 2
0.19949003 0.47671664 2.0554512 83 92 3
