ply
format ascii 1.0
element vertex 664
property float x
property float y
property float z
property uchar red
property uchar green
property uchar blue
end_header
0 0 0 255 0 0
11.875491 5.2335453 -8.426917 86 50 54
15.702772 5.116474 -9.723297 76 47 52
-73.78085 13.372593 8.945402 126 108 124
20.547247 5.1123505 -8.501477 74 26 48
-36.311073 3.6475623 15.896779 147 125 146
-46.79125 1.8666464 23.051636 131 114 133
-46.84956 1.8725525 23.065737 134 116 138
-64.59165 9.7831745 12.054936 112 87 106
-64.35928 9.749123 12.027666 107 80 99
-47.379982 1.7605789 23.429852 95 69 104
-43.82545 3.169174 19.827778 110 90 115
-58.925426 9.151344 11.245851 110 84 109
-57.546978 8.902428 11.127292 100 68 91
-41.19225 3.3868551 18.426699 120 94 119
-44.615353 3.0078325 20.522482 95 76 104
-44.59402 2.998793 20.531565 122 103 131
-44.91806 2.9550064 20.729864 94 71 100
-38.719383 3.3832245 16.934864 87 38 59
-56.409584 8.579893 11.088463 93 74 93
-46.829918 2.7470093 21.640215 97 73 109
-39.62226 3.370888 17.678074 114 86 109
-56.45815 8.561495 11.116562 99 82 101
-55.40656 8.403995 10.9597845 68 55 72
-59.021603 8.979442 11.407286 106 82 98
-59.050457 8.972483 11.433089 116 92 108
38.274242 3.9572887 -17.381094 84 49 69
38.515938 3.9526048 -17.310795 77 48 68
-42.16691 2.7091084 20.159058 81 63 89
33.88345 3.9920306 -15.124253 101 63 76
-47.91063 2.4850051 22.005178 92 73 103
-42.606133 2.6477604 20.356043 117 98 126
22.767311 4.0538216 -10.507958 86 45 63
-58.03402 8.725381 11.3793125 50 31 51
-48.15688 1.7903103 24.027681 116 96 124
16.513348 4.0480995 -7.91616 105 67 80
-58.694553 8.80292 11.471687 103 87 98
-10.758739 5.0295715 -1.4288607 101 61 72
14.11192 3.9411771 -7.015092 86 48 69
-46.673683 2.5894737 21.10149 50 38 50
-46.63183 2.5823362 21.095804 68 49 68
-42.346737 2.9474463 18.635551 89 70 76
-38.091045 3.2219768 16.359772 85 58 73
32.264626 3.447829 -15.510518 97 55 67
-25.007214 5.6792316 3.119042 96 36 48
32.045166 3.4388072 -15.446808 108 64 79
-46.23287 1.5735934 22.43435 114 89 111
-49.78459 2.2968507 22.883312 116 91 113
-72.56485 13.450776 8.68983 86 63 83
-66.431816 10.588474 11.431401 98 75 95
-53.7797 8.131835 10.587948 87 43 58
-56.297676 8.423506 11.091556 126 82 97
-66.302315 10.55586 11.432502 101 73 96
-49.516685 7.650317 9.69104 111 66 73
-8.706067 3.696747 2.919626 88 45 65
-40.0694 2.9487188 18.858397 100 71 99
-66.93905 10.742104 11.347886 97 68 88
-66.73489 10.650849 11.426358 78 52 65
-66.04255 10.423776 11.538001 64 46 60
-66.00481 10.391673 11.579215 70 44 57
-15.184117 3.7494848 5.407814 115 81 97
-66.10025 10.409544 11.582249 88 61 78
-49.8472 2.2943692 22.883583 126 112 135
-64.14851 9.849215 11.776142 121 94 109
-71.89143 12.023471 11.081424 70 53 71
-50.058342 2.25769 23.023304 122 104 128
-65.53269 10.2235 11.669077 118 99 118
-63.740585 9.733245 11.802184 95 68 87
-66.742256 10.640063 11.425864 110 77 96
-40.671215 3.0349517 17.550133 136 119 137
-58.02328 8.616982 11.399689 78 44 60
-50.14433 2.2620788 23.030298 101 83 107
-62.265205 9.34904 11.857885 124 103 120
-65.41581 10.184035 11.68115 121 93 116
-65.697945 10.270249 11.650228 113 94 113
-61.875103 9.258121 11.843665 112 94 108
29.31897 3.0891736 -13.798091 138 93 114
-65.71394 10.2602625 11.660516 110 93 112
-62.042046 9.271805 11.887821 88 64 80
29.452892 2.990915 -14.565162 53 22 30
29.6741 3.0135794 -14.033906 117 80 97
-65.7399 10.253548 11.677751 116 102 127
-65.53856 10.196015 11.6976 95 75 102
24.944796 3.1236553 -12.005217 62 34 48
30.02931 2.8882272 -14.623444 135 98 116
-65.65185 10.208439 11.713758 120 102 124
27.569351 2.9699504 -14.021007 96 56 65
29.388184 2.9486122 -14.086824 104 74 86
-66.932236 10.639627 11.467579 107 74 91
27.971695 2.9689376 -13.454894 118 83 103
-43.271614 2.9174163 18.796234 100 79 94
28.66733 2.8645065 -14.278245 111 73 86
-65.79957 10.253041 11.681054 97 78 100
27.594013 2.8701477 -13.390701 97 69 84
-66.3393 10.414955 11.612225 104 76 98
-66.28656 10.387023 11.639813 102 67 87
-67.86035 10.957001 11.271182 111 82 100
-67.38968 10.763739 11.422868 102 70 85
-46.852783 1.7349678 22.67317 83 60 88
19.761599 3.0099282 -9.955753 111 80 95
-64.94892 9.954755 11.837643 100 72 94
-65.77957 10.189103 11.764111 97 72 93
19.379114 2.9846554 -9.822844 98 72 85
25.846842 2.783023 -12.95338 94 53 71
-68.094284 -6.264822 46.704376 112 121 154
-65.825226 10.1987095 11.761209 118 103 126
-51.72563 2.0807369 23.803923 116 94 115
-40.663662 2.8541558 17.31654 136 108 122
-68.36205 11.069721 11.250309 79 58 77
-22.614985 4.9155226 2.2795548 64 31 50
24.263092 2.6341665 -12.937734 129 88 104
-68.219574 10.990286 11.327915 64 49 72
11.718349 3.091074 -7.1796217 54 24 32
-33.075844 3.173895 13.31515 64 35 53
-30.337444 5.4503684 4.7242503 63 39 53
-31.977953 3.1914494 12.7747345 98 62 72
-27.471445 5.2037516 3.8303838 51 23 37
-66.047905 10.179784 11.850097 86 74 86
-30.437967 5.419751 4.7568026 58 34 48
-67.65777 10.743918 11.527866 73 64 83
-40.03613 2.931235 16.746115 137 95 115
-43.048553 2.7903693 18.341698 100 57 77
-40.28681 2.9168766 16.865921 122 85 102
-37.79047 2.9663522 15.679028 55 31 45
-67.84954 10.790477 11.515399 105 94 111
-66.57245 10.360552 11.7381115 128 109 131
-39.69967 2.9334989 16.546509 66 40 53
-64.92815 9.797384 12.04535 81 63 87
-39.243866 2.9407518 16.312546 61 30 46
-37.92843 2.9775538 15.612743 63 36 51
-41.797955 2.8213778 17.615826 104 72 85
-41.830227 2.8285406 17.620771 89 61 75
-62.221424 9.059664 12.154799 48 32 42
-62.15677 9.049551 12.1429205 51 37 52
-39.945286 2.897442 16.61081 121 90 106
17.121069 2.5175405 -10.731711 106 65 73
17.414999 2.4890707 -10.824553 108 68 79
-43.838875 2.7161934 18.646727 128 96 117
-65.699036 9.9972725 11.976442 93 65 80
-49.579807 2.0252438 22.529938 130 113 132
-24.649458 4.7015233 2.9120295 58 27 35
-34.829388 2.9647768 13.870291 112 78 94
-50.10021 2.1148689 22.413368 99 46 62
-10.292769 2.9677608 2.2065835 67 33 49
-10.844491 2.9373176 2.4152744 70 36 52
-50.815693 2.0437047 22.789597 82 43 61
2.4832041 2.584818 -3.8078346 83 39 54
-66.756874 10.220574 11.983337 57 36 51
-32.300575 2.9068675 12.449102 99 66 77
-63.19306 9.11382 12.35891 47 38 57
-33.43714 2.888195 12.982712 91 60 68
-49.191204 2.1428778 21.727562 82 44 59
-80.35289 18.345963 2.8152719 88 68 95
-25.441809 4.481638 3.198447 77 35 45
-65.83769 9.868332 12.179851 111 80 98
-53.821205 1.6521318 24.6035 97 79 95
-81.42942 17.492838 4.932161 101 82 112
-59.862003 8.269029 12.289613 57 39 51
-59.59303 8.212553 12.266796 79 64 71
-59.60771 8.2159 12.275383 85 72 82
-65.834496 9.827579 12.235517 133 102 118
-0.5812136 2.3176455 -2.385274 72 39 50
-69.69466 10.49591 12.770704 102 75 92
-34.845066 5.172223 6.176753 95 67 81
-34.80511 5.1661816 6.1660895 106 75 91
-33.986866 5.091802 5.921355 115 86 104
-35.45303 5.210185 6.365042 75 42 51
-1.0524065 2.370955 -2.5179212 115 82 93
4.8098702 2.157325 -4.911777 87 53 69
-13.730727 2.6423635 3.3524337 86 44 56
-70.755486 11.865438 10.716907 71 48 64
3.431824 2.1907558 -4.6448474 117 79 92
-79.55644 16.841726 5.220157 107 91 117
-70.81296 11.864513 10.73567 85 60 79
-70.81785 11.867866 10.74106 91 67 89
-29.488564 4.557458 4.5471163 85 50 57
-23.95045 2.7237995 8.070726 72 40 55
-54.507473 1.915202 25.501448 110 82 104
-51.643593 1.402994 24.989822 81 69 91
-14.6516285 2.5752335 3.6559 107 74 85
-70.41633 11.639067 10.965529 114 96 112
6.0495906 1.9887999 -6.1109104 73 37 49
5.21834 2.0166154 -5.6843534 117 79 90
-21.068312 2.6434796 6.636582 75 39 49
-73.0979 13.209637 9.244645 129 117 137
-66.44408 9.896033 12.329287 100 83 101
-37.695496 5.193611 7.1045895 81 45 59
-37.67338 5.188392 7.1024246 90 51 69
-20.7489 2.5761738 6.387056 106 73 84
-66.23093 9.800602 12.398449 75 57 73
-52.388596 1.7652706 23.373043 88 69 89
-34.53816 4.806919 6.1767783 71 33 46
6.8422737 1.719892 -7.1078067 95 44 59
-64.26423 9.146983 12.644619 73 54 76
-27.542633 4.1422305 3.9612298 63 31 44
-47.90587 6.4417667 9.761899 63 29 43
5.443613 1.7520901 -6.1785207 88 44 59
-70.4015 11.56287 11.076612 104 80 94
5.1512713 1.5508568 -6.508678 96 62 76
-51.14206 1.1442477 24.497507 97 78 98
-71.20591 11.940384 10.73462 111 84 99
-19.546299 2.3592982 5.577273 145 127 127
-43.181923 5.5715756 8.789167 93 43 52
-73.02561 13.069214 9.457053 47 43 58
-73.116104 13.118728 9.400689 89 85 100
-73.15731 13.122367 9.410039 52 48 65
-71.80867 12.2845125 10.36893 111 86 105
-73.19212 13.170087 9.334515 107 96 113
-8.133849 1.9400666 -0.031202191 147 132 113
-15.584745 2.172015 3.5254261 140 124 111
-11.765359 2.0467386 1.7046101 160 147 131
-72.41398 12.623579 10.001543 90 76 89
-11.031293 2.0140886 1.3431513 98 79 62
-14.336253 2.1121597 2.9328117 142 129 113
-70.06559 11.264034 11.44919 102 71 89
-70.62535 11.551016 11.177843 155 127 142
-36.343365 2.5226169 13.619082 92 66 77
-70.10979 11.286756 11.426874 141 117 131
-9.802384 1.9332004 0.66461724 120 102 80
-78.963036 16.199728 6.6702743 102 75 94
-75.500595 14.051276 8.800666 82 59 79
-69.85626 11.122336 11.602585 119 116 137
-17.315163 2.1501715 4.2532926 150 131 116
-71.253426 10.895449 12.679411 107 54 72
-70.23645 11.291954 11.469694 115 102 119
-15.486342 2.0696695 3.334452 100 72 58
-74.431885 14.064094 8.206264 127 106 125
-69.922295 11.124314 11.625686 69 54 75
-74.133125 13.811216 8.5426445 90 66 88
-70.50331 11.392117 11.39514 76 61 80
-67.34287 10.380102 11.751754 124 73 82
-73.01251 12.961416 9.636618 78 56 69
-73.14422 13.043998 9.538688 91 67 89
-17.619041 2.015875 4.173028 136 118 94
-17.788717 2.0247076 4.242352 147 131 106
-72.07461 12.324948 10.390617 104 77 94
-17.972803 2.015961 4.314233 129 111 91
-18.259644 2.0040092 4.426525 161 146 123
-74.04309 13.6025715 8.897535 54 41 58
-74.73048 14.251883 7.980203 95 75 103
-19.84899 2.0384674 5.178005 207 199 178
-9.473267 1.6652943 0.0921356 163 154 139
-21.939152 2.087509 6.177486 196 187 170
-79.48624 18.809095 1.4313662 95 73 96
-78.78452 18.060513 2.5520637 120 105 126
-9.430698 1.6395067 0.0521477 97 76 75
-79.46133 18.77757 1.4796236 131 107 129
-20.462748 2.0272646 5.4219723 186 174 160
-72.15898 12.316974 10.439163 127 112 131
-9.842478 1.6329879 0.21284437 189 173 158
-73.304016 13.112829 9.474107 74 53 70
-72.12366 12.294652 10.4650755 121 111 135
-71.88706 12.134922 10.651545 61 43 59
-46.637478 5.650753 9.909118 55 23 28
-73.57534 13.268436 9.312785 106 97 116
-75.13491 14.592679 7.5124087 131 108 128
-72.05597 12.233458 10.546327 65 53 77
-10.480118 1.6071628 0.46114135 186 173 156
-10.432614 1.5983185 0.41885725 166 157 140
-61.07178 0.93129694 28.922066 93 73 98
-22.973335 2.1059353 6.6223936 218 211 195
-10.680498 1.5870916 0.5157694 111 87 75
-11.220818 1.6067939 0.7743294 140 119 98
-47.06627 5.6381164 10.061426 65 23 33
-40.93235 4.840762 8.366834 69 36 53
-11.119712 1.5828764 0.7105052 160 141 124
-22.734333 2.1262584 6.512948 205 192 183
-71.26725 11.715826 11.144589 132 110 131
-11.31171 1.5960975 0.78589416 177 163 137
-59.45057 0.66430235 28.608206 86 59 78
-45.425037 5.3974166 9.641773 78 34 47
-79.17449 18.464499 1.9515842 127 111 137
-71.16717 11.667038 11.17392 133 112 129
-41.069023 4.8335643 8.421839 83 41 55
-15.949496 1.7649928 3.0226185 179 169 142
-22.292738 2.0181556 6.217751 160 147 128
-11.885438 1.5910183 1.0342826 156 138 118
-21.132137 1.9369898 5.6042075 137 121 96
-74.90008 14.345677 7.879053 133 109 123
-24.620193 2.0518692 7.324901 203 195 174
-22.456553 1.9765494 6.249924 150 132 108
-22.799238 2.023877 6.4441295 198 188 163
-24.07752 2.1499903 7.1274757 165 151 140
-12.420824 1.5945685 1.2679942 192 178 151
-70.8289 11.455608 11.4067135 76 56 68
-17.089603 1.7657593 3.5435324 167 155 131
-14.927901 1.6897511 2.4495046 156 140 117
-12.427171 1.5744326 1.2004328 117 88 70
-24.406967 2.020879 7.169717 178 163 142
-71.79026 12.024472 10.800355 129 107 128
-73.17653 12.930217 9.753031 78 55 65
-44.196415 5.174263 9.337009 71 30 38
-22.367647 1.9383765 6.141958 108 83 61
-26.731464 2.0881984 8.290632 198 187 167
-12.610525 1.5652666 1.2721167 118 95 77
-24.689123 2.0135672 7.2807198 127 108 93
-79.08396 18.272793 2.2866302 107 94 114
-24.115997 1.9856967 6.981046 149 133 110
-13.486028 1.5823287 1.6642627 115 90 70
-17.12749 1.7275416 3.4862523 169 151 129
-25.966362 2.0474994 7.887057 172 156 131
-17.127222 1.7233971 3.4634478 176 160 135
-28.209127 2.114151 8.976045 199 188 166
-30.37899 2.183614 10.045551 147 123 119
-16.579632 1.690828 3.1738892 175 159 133
-26.504318 2.052777 8.126308 137 119 99
-13.892104 1.5788343 1.8246694 153 135 115
-24.113146 1.9643902 6.9335237 115 87 65
-27.63105 2.0856936 8.67221 163 146 126
-31.270737 2.1792371 10.442435 179 165 156
-18.581015 1.763619 4.1606493 132 114 90
-26.257332 2.0389578 8.000155 121 99 75
-28.442549 2.1100006 9.0681925 148 131 111
-16.364582 1.6731626 3.0412524 166 148 124
-25.301117 1.9987113 7.503842 140 120 96
-14.441276 1.5789562 2.087115 95 65 54
-15.475331 1.6218945 2.5917575 124 102 79
-15.6529875 1.63372 2.6637554 131 111 87
-47.69303 5.589081 10.330356 80 35 42
-17.274147 1.6961261 3.473673 131 108 90
-27.98753 2.0834203 8.816433 163 146 126
-19.254374 1.7637794 4.451825 138 117 96
-19.420794 1.7736127 4.520837 116 94 73
-11.265408 1.6515585 -0.9746146 77 39 52
-78.255196 17.390436 3.6069741 75 60 83
-75.81099 15.022909 7.012509 59 43 54
-18.159237 1.704436 3.8723843 151 133 109
-16.65105 1.6397204 3.1063287 154 134 109
-8.722576 1.3437618 -1.3624977 85 46 65
-27.732508 2.0540943 8.643752 137 119 97
-75.72299 14.962205 7.0842166 114 90 112
-29.873692 2.1187792 9.691145 164 146 126
-73.33066 12.976618 9.738663 93 76 92
-19.825293 1.7552772 4.657883 125 105 81
-16.415968 1.6066864 2.9418447 138 111 92
-30.72581 2.1422348 10.104273 141 122 105
-47.90561 5.5784383 10.4081745 82 36 46
-75.65755 14.884242 7.2032166 75 61 87
-48.21573 5.613848 10.4907675 103 60 69
-76.572464 15.692162 6.0889335 75 63 87
-9.814536 1.3238899 -0.70555604 73 30 47
-29.438164 2.1671152 9.503607 174 160 147
-53.2037 1.7540417 23.016853 123 75 89
-29.141537 2.067226 9.2618685 126 105 84
-79.71851 -1.8266073 44.552185 134 129 159
-72.281494 12.203102 10.698436 57 43 58
-74.33733 13.648032 8.948068 68 43 64
-52.98718 1.7744578 22.837135 73 36 44
-49.00281 5.697323 10.716455 72 30 44
-29.445036 2.148908 9.463709 173 158 139
-10.036305 1.3759959 -1.0846902 85 41 54
-9.847911 1.3416377 -1.0526963 83 36 44
-60.909702 0.54488444 29.541672 106 54 67
-17.463316 1.6004511 3.336949 78 48 37
-75.77001 14.971835 7.093518 49 42 60
-74.96687 14.28103 8.027837 99 80 100
-32.002 2.1796496 10.67313 127 105 92
-79.64566 18.8841 1.368092 126 105 124
-10.329496 1.3149521 -0.7566181 59 19 30
-61.002987 0.5715848 29.535395 102 48 62
-13.462507 1.6529528 -0.17472793 78 42 56
-10.925456 1.3097861 -0.271849 58 18 29
-38.354702 2.2727287 13.81153 139 130 135
-61.148743 0.54259473 29.664795 141 93 109
-78.56735 17.71307 3.131898 94 71 97
-74.495995 13.887604 8.558082 129 115 132
-47.504818 2.400318 18.623316 93 42 59
-53.797737 1.7372316 23.297422 99 56 65
-74.445694 13.829893 8.642419 93 75 97
-48.90948 2.3781016 19.423792 90 43 61
-76.696556 15.843676 5.853496 107 82 101
-75.887314 15.06777 6.957252 78 63 84
-11.868466 1.3260052 0.17977233 75 35 46
-30.708668 2.1309152 9.970511 137 116 95
-78.91347 14.374006 10.075131 63 49 66
-12.958854 1.5507901 -0.26504537 58 28 38
-75.04146 14.351344 7.9249096 90 65 84
-13.002776 1.5561188 -0.2505835 71 43 55
-52.848953 2.370448 21.75165 94 43 58
-53.651512 1.7360766 23.193386 63 28 34
-75.86241 15.0199175 7.0391426 105 97 112
-75.8634 15.02318 7.04328 98 87 104
-54.15326 1.6995068 23.515244 100 60 68
-79.23842 18.40727 2.1057014 96 81 104
-37.75669 2.2903187 13.471746 139 119 110
-75.88114 15.028089 7.036885 96 91 113
-48.23457 5.451166 10.608428 133 79 92
-54.092754 2.3032682 22.368166 78 42 54
-44.028076 2.267825 16.743818 76 45 61
-44.95303 4.973157 9.714472 98 44 58
-48.65203 5.484466 10.731944 70 25 32
-45.65808 5.0516768 9.922256 96 39 54
-75.07371 14.267721 8.10121 101 87 100
-54.102486 6.3658805 12.018248 84 37 53
-78.871544 17.967793 2.788709 125 110 129
-67.2743 -10.238654 54.695126 102 101 135
-28.687685 1.8967041 8.575843 104 82 59
-28.802479 1.9013973 8.627911 95 77 55
-30.490667 1.947995 9.457913 120 95 75
-14.578765 1.3336066 0.7557351 112 70 80
-41.45925 4.4045877 8.763435 102 51 60
-42.75899 4.5830197 9.136489 103 52 67
-29.597275 1.8938051 8.9320345 104 77 60
-47.767235 5.279518 10.53946 66 21 26
-41.37682 4.3799996 8.748087 70 29 37
-15.638702 1.343612 1.2314817 71 34 51
-30.16121 1.9052223 9.190383 186 179 153
-76.6989 15.752251 6.0292945 90 73 91
-15.619786 1.3217765 1.3006953 89 42 58
-42.010193 2.286544 15.345498 103 70 79
-41.477226 2.282248 15.043693 164 155 150
-41.529793 2.2763953 15.078921 166 157 152
-78.00142 17.001448 4.2481556 115 106 127
-59.25942 7.47077 12.708661 69 33 45
-28.214943 1.8177546 8.155135 147 129 109
-28.606071 1.8272009 8.338965 166 149 121
-29.908886 1.8783185 9.012742 167 150 122
-39.536522 2.2224343 13.999793 160 147 138
-28.72924 1.8281016 8.389978 157 140 110
-47.73715 5.228981 10.566515 70 25 30
-28.85233 1.8290318 8.440983 151 131 104
-25.672825 1.6941745 6.7521157 130 103 76
-47.943382 5.2442303 10.63184 97 51 54
-29.024553 1.8271185 8.509522 120 96 72
-30.120756 1.8663079 9.058674 155 140 111
-31.73366 1.9304279 9.904174 194 182 158
-25.331688 1.6717079 6.544128 94 67 50
-28.228762 1.7855134 8.066779 151 134 104
-46.289745 2.4015079 17.440819 209 205 202
-55.41962 6.4752045 12.402687 62 23 28
-46.826595 2.40927 17.740116 120 110 109
-55.364147 6.4532948 12.40517 84 37 43
-46.202095 2.3949742 17.389702 225 221 209
-40.872738 2.2524338 14.574633 185 180 161
-30.213306 1.8459796 9.065447 153 143 133
-76.60952 15.610729 6.263179 99 80 102
-74.51623 13.728984 8.857691 108 84 98
-47.361916 2.4177005 17.98288 195 189 173
-43.187294 4.4833946 9.372728 105 64 70
-44.543766 2.3534703 16.466005 166 159 153
-55.081364 6.3829937 12.363563 104 60 61
-43.054317 2.318266 15.668408 131 121 112
-43.10148 2.3116448 15.702272 152 143 136
-48.518604 2.4355457 18.592377 98 88 86
-44.307846 2.3450606 16.326908 206 202 190
-74.53263 13.753098 8.825729 136 117 136
-45.16183 2.3670418 16.76255 205 199 185
-18.38299 1.4026349 2.0969148 94 40 54
-45.461517 2.3750777 16.91078 175 167 154
-45.475197 2.3688495 16.926823 151 143 132
-45.91734 2.3853068 17.144068 138 132 120
-74.59519 13.755803 8.859493 128 106 119
-49.701416 2.4565217 19.190928 165 162 155
-76.796906 15.74059 6.110294 93 73 98
-41.470657 2.250014 14.764081 136 126 114
-42.39503 2.2761357 15.234654 93 81 81
-41.02652 2.23185 14.511173 110 91 93
-49.118866 2.4583185 18.810799 149 145 136
-51.192696 2.480915 19.952976 178 173 169
-34.69292 1.9865563 11.221411 155 137 113
-47.44517 2.4201033 17.883425 153 147 135
-48.1129 2.4331481 18.252464 168 164 152
-34.468613 1.9736719 11.086123 130 110 86
-42.472878 2.2757344 15.249056 177 171 155
-49.36777 2.4619396 18.910975 104 95 88
-77.07813 15.985167 5.7759824 111 94 110
-46.896736 2.4035592 17.571518 135 125 113
-48.415787 2.446703 18.390503 168 160 147
-51.48761 2.50178 20.063456 112 98 95
-78.24073 16.098846 6.220567 118 105 123
-79.105515 18.12195 2.6065464 78 70 91
-72.04571 11.82882 11.259795 96 74 86
-44.56531 2.3432477 16.326433 184 177 159
-49.35224 2.4629695 18.886976 95 85 84
-79.132935 18.116758 2.6385171 56 53 70
-79.10338 18.062704 2.727227 48 37 54
-53.167397 2.51476 21.003416 180 174 158
-35.348717 1.9910583 11.474782 149 132 116
-35.725044 2.009101 11.675311 134 118 103
-52.85488 2.517286 20.78758 86 74 58
-34.23344 1.9427979 10.8848 148 133 114
-52.316856 2.5196173 20.474548 45 32 24
-34.951607 1.9693774 11.248505 177 169 148
-50.546383 2.4850254 19.498398 38 25 19
-36.915302 2.0485864 12.251455 160 152 133
-49.056137 2.4564762 18.66811 45 31 22
-79.14271 18.072319 2.7359016 81 72 99
-46.932465 2.4048052 17.483541 138 126 112
-52.78115 2.5171058 20.683855 93 83 84
-29.153614 1.6917858 8.134395 110 92 78
-52.07618 2.5037432 20.291878 69 55 52
-53.35022 2.5189064 21.01334 109 96 103
-51.51547 2.5031872 19.968843 113 102 96
-30.719795 1.7673231 8.934183 90 68 70
-46.754337 2.4016984 17.363905 151 142 125
-50.9306 2.4889789 19.647467 72 59 53
-55.142033 2.4942145 22.090837 168 164 163
-50.20401 2.4738672 19.238775 104 94 84
-53.058857 2.5227642 20.824947 140 131 124
-29.338305 1.6902069 8.205872 159 149 140
-48.079212 2.4288545 18.077822 55 42 36
-55.39882 2.4810627 22.255955 166 159 151
-66.71148 -7.0820255 49.82832 70 88 138
-41.86557 2.229069 14.76357 136 127 118
-30.475441 1.7421439 8.805428 167 158 149
-32.585503 1.8443294 9.901529 86 66 67
-23.405237 1.4218166 4.8938107 95 45 56
-46.446857 2.3906174 17.175045 155 145 133
-31.75463 1.7965856 9.463306 185 179 167
-32.411633 1.8258471 9.801289 189 181 168
-43.883537 2.3010879 15.792151 75 64 68
-43.872402 2.3076031 15.778811 68 56 60
-21.923958 1.4463025 3.5172563 81 33 45
-54.5062 6.187926 12.263464 68 23 30
-23.31172 1.4099747 4.748699 83 35 51
-54.556828 6.1862264 12.298052 80 31 37
-46.18614 2.381483 16.982067 121 107 94
-74.37489 13.490491 9.251827 68 45 61
-54.351936 2.5050442 21.520458 135 123 97
-54.785927 2.5152855 21.75993 140 128 104
-26.126923 1.5055424 6.2484493 65 32 43
-28.674232 1.6210923 7.6511903 98 65 58
-67.40628 -8.1423435 51.30213 118 121 166
-23.06977 1.4236314 4.1768007 94 43 52
-23.724775 1.5763843 4.0031385 84 34 45
-51.43768 5.4282722 11.893568 90 46 47
-23.65059 1.5705048 3.9709642 66 23 33
-23.622257 1.4130139 4.6038876 64 20 33
-47.25989 2.3788488 17.508013 46 35 29
-50.927822 5.3310094 11.777722 63 20 27
-34.027237 1.8595303 10.456472 123 102 81
-45.792355 2.33514 16.695713 42 31 29
-75.66267 14.580999 7.7942443 129 107 119
-33.56924 1.8362298 10.204113 135 117 93
-24.396378 1.6323352 4.18155 87 46 60
-74.30751 13.397271 9.405399 108 85 101
-39.858498 2.1159618 13.509339 88 74 63
-46.877464 2.3602283 17.27121 102 87 68
-77.27461 16.106077 5.6477246 112 97 118
-24.13506 1.5381771 4.2822065 128 81 89
-24.863407 1.4413961 5.2593646 125 79 92
-44.404636 2.2901568 15.889399 50 29 24
-24.450104 1.5734215 4.334088 66 36 46
-24.528896 1.5796019 4.368717 76 44 55
-27.982204 1.5544604 7.057969 42 15 22
-61.36447 0.9057556 28.641914 133 99 115
-30.772266 1.6736515 8.607088 127 76 91
-30.899237 1.6811116 8.665327 136 88 102
-53.824844 2.3229673 21.379488 137 96 112
-25.066109 1.5229418 4.7777696 82 38 51
-25.14191 1.5128418 4.846998 91 41 52
-25.273746 1.5345565 4.8438272 79 38 56
-53.824394 2.3125186 21.35764 81 38 47
-72.68563 12.051497 11.160596 104 83 100
-71.200195 10.993186 12.414679 82 72 83
-79.69187 18.72251 1.7385557 79 73 101
-60.73467 2.12366 25.826557 79 35 48
-60.985218 2.1185417 25.987833 88 40 56
-59.53593 1.3048193 26.653954 79 35 48
-60.710583 2.1437495 25.753185 85 41 56
-60.982533 2.1282926 25.952896 128 75 91
-62.541714 0.5903145 29.907417 89 47 59
-59.714214 1.3012378 26.751139 77 35 49
-61.396732 7.8288684 12.897916 121 81 92
-61.476868 0.92098355 28.844442 130 82 96
-27.834988 1.6644819 5.6954856 86 38 52
-30.516487 1.6121596 7.857831 83 45 58
-58.252045 2.457552 23.59408 117 61 74
-43.664963 2.1934333 15.114082 62 26 36
-73.42501 12.478364 10.726021 53 36 52
-57.318596 -5.2822556 38.81131 103 85 111
-77.89477 16.664549 4.8736978 84 69 108
-30.16723 1.7722671 6.5480337 93 40 56
-37.892025 1.9411205 11.755612 136 85 100
-60.419594 1.9925647 25.70982 114 56 71
-36.29024 1.8573006 10.861225 136 87 108
-57.37136 -5.2692566 38.80622 123 120 131
-57.33534 -5.323757 38.898827 159 148 146
-30.107107 1.7348559 6.593925 143 92 109
-57.30336 -5.2350206 38.68794 149 150 178
-39.437904 2.0187361 12.519045 86 35 44
-57.313873 -5.2266674 38.660404 82 67 70
-39.97235 2.0425963 12.767299 145 97 111
-78.35174 17.123312 4.2157154 119 106 132
-78.31207 17.060656 4.321109 119 119 147
-78.22852 16.971329 4.453049 31 41 77
-78.282326 17.006132 4.411524 66 81 114
-78.15834 16.914356 4.528179 114 105 160
-63.180878 0.68160576 30.205215 136 85 102
-63.44456 0.66621774 30.40007 149 104 124
-78.24105 16.978848 4.444383 106 105 139
-30.873102 1.7170107 7.016477 144 91 107
-56.783356 -4.9432135 37.71099 86 72 97
-78.10237 16.8391 4.650482 60 74 139
-41.14979 2.0990703 13.264916 109 55 69
-78.22515 16.97628 4.4432654 117 114 143
-79.07713 17.852943 3.1627922 130 118 142
-42.69946 2.1856344 14.048409 112 56 69
-30.550346 1.8192589 6.7367682 108 47 63
-37.438553 2.5937448 8.687436 107 65 79
-30.555183 1.7871118 6.812203 144 91 109
-55.88217 -3.2132103 33.39553 66 37 55
-68.072075 0.18391518 34.096706 56 28 40
-61.684135 7.8959284 12.732276 110 56 70
-60.070118 0.92253065 27.331919 83 46 64
-64.82469 2.185766 27.923586 86 47 68
-56.40418 -3.0959399 33.54325 60 32 54
-66.13517 0.40285084 32.351658 96 65 81
-66.2227 0.6629284 31.87026 96 57 76
-66.28121 0.4344292 32.372288 115 91 107
-67.4556 1.8697019 30.282164 82 43 62
-62.094612 2.7621918 25.07076 140 139 171
-66.357025 0.67775315 31.9168 128 89 108
-80.55989 18.86771 2.3063602 82 64 80
-71.87023 4.175852 28.678854 118 69 90
-61.66183 7.820796 12.802386 116 81 85
-62.975468 7.950569 13.611854 104 53 68
-56.45512 -2.9358275 33.133472 63 51 71
-66.82179 1.4043111 30.691517 69 25 38
-79.51251 15.159573 9.420909 66 54 74
-56.32473 -2.7797675 32.68992 60 33 52
-71.68817 1.1379608 34.42752 131 98 115
-66.77465 1.5994779 30.26311 81 42 60
-70.859886 1.12448 33.873962 106 64 88
-66.27543 2.2755313 28.57436 101 58 75
-56.908123 -2.648691 32.86355 58 37 54
-67.18143 1.2426102 31.232666 71 34 51
-57.753155 -4.580437 37.321594 38 32 42
-51.957745 2.6090114 18.678705 83 42 58
-42.988 3.1089394 10.388974 93 52 56
-43.079067 3.1157312 10.436615 96 53 60
-42.529804 3.0033998 10.316021 64 25 30
-39.94782 2.3802583 10.125253 97 53 70
-49.031338 2.651729 16.30497 98 49 70
-40.09173 2.3803592 10.200482 96 52 75
-75.84162 14.20108 8.691049 100 88 108
-65.06067 3.398817 25.476233 90 59 75
-72.841064 11.4353 12.4945965 79 68 82
-66.38366 -8.452333 51.53553 86 92 126
-66.34027 -8.463721 51.542343 96 100 138
-68.1095 -7.0348735 49.654903 84 91 120
-75.14239 13.431795 9.85025 42 31 47
-68.72701 -7.8304996 51.476337 97 107 134
-69.36883 -4.9640427 45.707 120 126 152
-67.877045 -5.093436 45.036427 104 108 133
-68.13368 -7.054691 49.583973 97 105 128
-67.58695 -10.237797 55.661907 93 96 127
-74.26672 -6.0159497 51.643967 114 128 154
-68.64695 -7.352795 50.4669 97 102 122
-69.37342 -8.046268 52.35309 96 104 125
-71.34776 -3.9382422 44.94979 80 51 69
-71.40299 -3.9223785 44.961983 84 49 69
-71.502335 -8.418817 54.651012 115 131 157
-74.69268 -2.4654067 44.178265 80 45 65
-71.92956 -3.769895 45.091747 72 37 57
-71.69024 -3.2564447 43.802814 93 49 72
-71.75223 -3.2570643 43.85698 79 47 68
-71.77186 -3.2448409 43.905262 95 63 86
-75.3754 -2.217054 44.230247 78 40 63
-74.15092 -2.0715022 43.398724 70 34 48
-71.30634 -4.267761 45.846912 118 90 113
-73.66626 -4.2659917 47.93656 149 151 210
-72.40458 -6.386379 51.72638 129 147 169
-72.38063 -6.420657 51.78021 135 145 170
