ply
format ascii 1.0
element vertex 708
property float x
property float y
property float z
property uchar red
property uchar green
property uchar blue
end_header
-0.062456359671652105 1.2064098515046435 11.91220893810979 79 101 140
-2.635304492306985 -0.6986977424044579 15.387871353566211 87 94 136
-3.6341867665679404 0.6446624512496001 5.144693058918979 15 23 46
-4.429779377706551 -0.2641318560033576 8.787547074754633 113 125 165
-4.403550543984357 0.8667280400621827 9.699528554481967 96 111 154
-3.5932919943796984 0.46677848948742806 4.715356683431335 99 113 148
-4.068229259690118 1.2768975677597185 8.512275089608398 62 65 98
-3.796758758559291 0.2457617229300224 4.556308581515632 89 105 141
-0.2792644214890412 1.1636068563644688 12.060846531905183 68 54 67
-3.5336444131646787 0.5315774893027332 4.633133273488539 84 107 139
-2.1311210231007065 1.0187598777575764 13.67452763195897 94 113 155
-4.7949687606534095 1.5150967040501733 14.67846529139657 87 100 132
-0.351796810072613 0.8867697316591272 12.242719428480305 57 69 109
-5.28797180298316 0.4662107486453783 16.111639614359905 22 28 54
0.4720940570936814 2.0439096432443895 9.575309539610139 2 6 9
-0.7704318856035136 -0.04863732350187152 13.079478205211096 108 122 169
-2.156015689707201 1.5639035860069677 13.412415000581971 99 116 159
-1.8765854758041003 0.8540544580944256 13.501060021477906 79 97 137
-1.1319122347419157 0.1764440350716251 13.193471763301616 75 90 129
0.30237101995130117 1.8641227694394766 9.725301468271267 13 55 53
-3.968920470172161 -1.5774558146908118 17.65951263936327 86 98 138
-5.501652529194572 -0.3575782508785079 13.622605958678216 110 126 160
-4.05114890010904 -0.16515642843146852 4.934758823203788 79 85 117
-0.954808428944108 -0.41053567334106383 13.47457558308169 87 104 150
-3.763001012132409 0.15312232365792686 5.374999295903982 78 75 102
-1.3894132397127519 1.8570325355052888 12.412281963562627 97 114 158
-4.34949503169114 -0.8996699687066767 8.001577524216662 111 124 168
-1.2079186023941688 0.4640988722997617 13.079909450958702 34 45 67
-0.32497073896236117 1.063436280852591 12.085354367493569 91 109 149
-5.158679383587503 0.10412318390445771 16.701229353950897 14 19 41
-3.330067576569807 0.8804722187731431 4.691575090795058 50 53 72
-0.44405775869342684 0.7063403199541665 12.335606820560056 52 62 98
-4.726650756867012 -1.0377555476046714 9.68016889826589 83 77 105
-4.212291433780306 -0.8559938402314451 5.2263034708102305 86 96 131
-0.5326480273528896 1.0113337972903267 12.262921672961957 52 57 99
-0.3974009754771788 1.147353485557852 12.112773232044905 77 61 72
-2.534911875156735 0.8339469551201238 4.4246801328776195 6 8 7
-4.15389471717923 -0.3042831764413868 6.698045580493215 132 150 198
-3.810945688622739 -0.7414770184962228 16.948768516865915 106 109 142
-5.470374287033137 -1.4532329225633607 13.177747942306196 91 104 138
-4.217169376099113 -0.9703317968573445 5.209045651301441 75 81 115
-1.2090029578806167 -0.06370086113141996 13.441875102512508 97 116 156
0.36577496356952555 0.6324107449564298 12.127668049044283 94 103 134
-0.9770200929332371 0.3796563279889266 12.935604092531841 82 100 140
-0.8122610477778665 1.164301450603489 12.340812859066098 18 21 38
-0.8781422718142063 1.300579570062734 12.333211772637387 40 53 85
-3.6717835522008238 0.5338966017249263 5.078989192304276 21 20 28
-4.294212971430855 -1.733533903836909 7.113442861596659 33 31 53
-4.016703546930479 1.1421075071216376 8.229054123846643 97 117 154
-3.63756445444677 0.5323586342875636 5.602752486284572 53 58 78
-0.9806248040581289 1.8795630459565178 12.088822756780415 40 38 59
-0.12869537934587533 0.3170370420213886 12.445822109031484 85 102 146
-4.115075159043232 -1.6228700563586758 5.471350743274175 103 118 161
-4.751677524052857 -1.6170083792974723 9.422686894007144 103 93 91
-4.126411120284278 0.9514843809748864 8.531789872344548 90 103 138
-2.590344861950441 1.9862525666579574 13.738498415785568 70 76 92
0.7438227956245937 0.13112026328907503 12.576106553170417 39 49 85
-4.066793180799829 -0.8366542551778318 6.250238861509776 105 81 115
-4.105277290817651 -1.583462882724193 5.314884742633544 79 78 76
-6.351517431793253 -1.8834785282332798 18.415252715342685 67 61 65
-4.160733648149076 0.16537282522414062 7.985116556695971 115 112 131
-4.5119366679767285 0.8795475027439479 10.154905149374638 53 60 89
-5.822708841245377 1.1143001444223795 16.052766449959368 46 53 79
-1.3097230949169159 2.251982055433458 12.142789891339989 88 105 148
-0.9066077712397631 1.3808770773638988 12.29686534843318 21 19 30
-1.122757720741351 1.9909294539778055 12.096545208776796 17 17 29
-4.088111259756763 -1.6221264927874557 5.523437266193186 86 100 137
-1.2369876203454486 2.3359154750990965 12.009210052044068 92 107 150
-3.888480100721819 0.07226370677102745 4.7359196980168266 96 116 153
-4.158925111399665 -0.6641211957052491 5.313812492960608 91 89 128
-3.4205326450050504 0.6969990721787335 4.628712720007528 41 52 84
-4.035741286666316 -0.06552710979865486 4.808229379964974 95 109 146
-4.063730469874632 -0.7160615141369963 5.878713017751613 107 118 163
-1.272637167747493 0.521438914715817 13.118983763975203 86 101 142
-1.4532552629556588 1.067177356416443 12.93164123845034 18 24 40
-0.40225609418599384 0.8769100965683028 12.26756650665327 63 85 122
-0.8381577019526673 1.3738996061497513 12.328684735416845 53 37 48
-5.34732839175134 -1.9164527962719726 12.321806221930954 88 101 136
-4.114966429736385 -0.39697795146875625 6.511982336239987 14 17 26
-0.5772622245943269 -0.009534097849846454 12.971177171402784 47 51 76
-3.585397726413355 0.4531198229609114 4.827432038995019 73 88 121
-0.5473430292510737 -0.009077543316563599 12.856539013603204 49 55 81
-0.5714429090885554 0.690366907625568 12.435410691244186 30 31 49
-1.6386435758880045 -0.6138542162360662 14.147520400659072 76 91 134
-1.1070038194318663 0.1416698250097398 13.16314810310426 35 31 56
-4.364243301247596 -0.10656219193202011 8.741221087109691 75 86 118
-0.8601851457498055 -0.3169184646258883 13.276147806995798 67 80 122
-0.9829815533021432 0.38072673237657095 12.97787041436337 82 100 140
-3.030421485255535 0.08186297657488484 6.11215715842527 92 71 80
-3.7597814972664225 0.2121398012199941 5.049580771130212 105 123 161
-1.740228391541703 -0.7890316361624872 14.431938191400315 112 132 182
0.17752327934277443 1.4935592866785203 11.735094529646712 103 90 116
-3.646676962699737 0.5086469280089132 5.635533931984743 50 55 74
-3.6612777281480273 0.338397114651541 4.918131067038935 94 114 151
-5.571824316860809 -3.3512809253268143 23.153384586295473 82 97 136
-4.125004297367983 1.0011061224204412 8.603983509677896 102 118 152
-4.44767531087356 -0.8278659919671006 8.468851708479614 109 123 160
0.4531042521932779 2.0343468913805802 9.584085251840142 3 5 4
-4.280990836985074 0.12916599744644108 8.498275118783324 114 124 160
-1.8338650247844177 1.707812617134356 13.027234162674917 64 57 64
-1.9697897048698758 2.501739716451545 12.59780273613689 69 63 91
-4.408908404037215 0.4352324122303446 9.295107332697835 76 87 132
-4.165674302736176 0.7423763452031685 8.543099506372156 108 121 156
-4.099559401599889 -1.5354395679520856 5.0800290612536845 86 100 137
-2.8307997393393847 0.188569699374527 5.115244582161381 104 98 86
-4.253025734732019 0.49559358087687794 8.666527709365127 108 123 166
-4.692471897091622 -0.9690073914573464 9.553678997603926 90 98 134
-1.4072960672853514 0.027981689374916463 13.53332766994646 70 78 124
-4.1266126030812575 -0.9747311483140413 5.864229275171018 103 118 157
-0.7047035034994308 -1.112028664890444 14.026713156458094 115 142 189
-4.752183404916725 0.386717947268053 10.915869979308358 76 84 121
-0.9382770442247579 1.6527012425639735 12.165387257054265 58 46 56
-4.093771555271899 -1.4895575968561798 5.12404423465157 79 98 131
-4.092651921456904 -0.7307816550477964 5.811986252883451 102 121 164
-0.6282332097674609 1.0212454382755831 12.333868803988182 20 19 33
-0.9246722362026598 -0.11637660381518183 13.19119393426001 47 50 69
-1.2158870597571545 2.00527921190076 12.188370742341034 64 78 105
-5.760324570360405 -1.8369026228342122 18.12800546951548 83 78 100
-4.389344291195166 0.10593127408356302 8.897745922560635 101 105 140
-0.8147169652422726 0.5221131730443815 12.74280470710861 49 50 80
-3.6795842700384034 0.530781700566817 5.060969378341695 11 17 29
0.2740144537361513 1.7370661444172466 9.773680939673014 80 103 147
-3.844459191589775 0.011986122879301878 5.335128537449978 102 120 160
-5.956023814952981 -0.1279943147732659 15.297706914769966 32 41 72
-3.950072239093401 1.3108615787333917 8.144955658829032 67 70 101
-1.1797484489460102 0.5453481593810571 13.01097286236042 64 84 117
-1.3638287505405573 -1.6445096368799927 14.576464826912016 37 53 86
-4.488945846630767 -0.8820658775928213 8.632198866710889 111 124 169
0.28251623882114124 1.766779174705114 9.764469692562004 88 112 156
-1.4746481321343796 0.872792778683267 13.091790830446001 69 84 125
-0.3011271284667814 -1.3075004757271853 13.532212734479275 81 69 79
-3.576571243178478 0.7161814109886973 4.949588074206532 18 17 22
-2.34247418914195 1.1734361731747935 13.83079139347946 86 103 147
-1.2692520297220893 0.27138521630894413 13.208433632050696 95 113 151
-4.2002662845483 -0.42148405218482987 7.455385748124701 48 50 65
-0.45178951646550153 0.03271333551866697 12.774404418490091 42 29 38
-3.7271062158720443 0.24782613774959217 5.1205788368416085 81 95 132
-2.0638818065334212 2.254141988971751 13.114281832630002 88 94 128
-3.9421257057957306 0.9437664370919681 7.746724824537494 78 83 113
-1.4208074899133902 1.7040427381613146 12.496660346675075 83 105 144
-0.4247511529601663 -0.183229397727287 12.937464199837885 121 137 189
-5.246684201189587 1.828418858615385 14.04367274412267 87 103 137
-4.355598984991455 -0.2266803102447581 8.589562828130523 81 88 132
-0.15570242564546713 0.10613882687692787 12.627902425293689 89 108 151
-0.17228007048573912 0.22247334713716005 12.554743435262974 55 55 81
-1.2445836851688412 2.190163184492879 12.126477111051987 46 56 91
-4.11216618885845 0.7364854727605671 8.239479085167337 109 123 158
-3.414104910322134 0.6884117360249178 4.597255719431637 72 84 122
-1.0923161990551478 0.4449490036239806 12.999704604875781 87 104 147
-0.4187586988286266 1.1990462048450894 12.089256709071003 67 54 63
-1.3284253576145608 1.7754829741679916 12.39727748717343 26 24 48
-4.726595156820039 1.182232655642444 16.100915043662763 91 100 139
-4.409050245125197 0.7586431537799526 9.63106417262848 54 67 111
-5.626324268725988 0.6949372179932879 14.334586209385652 117 131 176
-2.2463060609535863 0.7927064773903865 3.937383760180229 12 13 15
-4.280352627086158 -0.7151134485608643 7.894249540746791 103 121 157
-3.3991178566897604 0.6798957319398622 4.287844261330921 67 71 100
-3.8938262533974246 -0.07570261223980967 5.567105379292424 87 74 92
-4.113957422299078 -0.8185552258694023 5.700929622508873 106 113 142
-0.9849732684639255 1.042336905720427 12.530695765012881 24 25 46
-5.469732136866576 1.6147303743720702 14.901641946929479 54 55 83
-0.5143514757458463 0.039504597094576856 12.844858783937745 33 23 32
-3.9702990261174858 -0.531353447217645 6.22066476972343 93 94 99
-1.0191485564782576 -0.5726630773092196 13.594769797255196 117 135 183
-4.204403904464023 -0.42227798952606804 7.4582267265237725 48 50 65
-2.084307823453241 2.3808557850034004 12.724483955247788 91 108 151
-5.091897098639278 -1.0426868747175808 19.155319948441125 92 84 107
-1.4505288103596872 1.9045390332396743 12.456991433698201 22 24 49
-1.3592400248718943 0.8758204439863059 12.969227340007066 94 111 154
-3.741925373009781 1.293549514518529 7.184736261310999 93 106 138
-4.262758863855858 -0.6180163110569747 7.69789451351332 98 111 156
-0.1261080600270252 1.1607847651303018 11.963692017767123 81 99 137
-1.5177020111828452 1.415641307160528 12.75662949269121 39 51 77
-0.6499582210311772 -0.017059623787892712 12.963761763762859 53 62 93
-4.1579555971103375 1.3251310979351139 8.778120078047753 28 29 34
-5.567004923581687 -0.7730981332003027 13.74938097750006 84 94 130
-4.042490931448626 -0.9376479722420926 6.426040953972708 135 149 188
-4.907854479061659 -1.6689879842427835 10.220805400324563 79 68 66
-5.538351488855157 1.5352163170274462 15.027052995310624 76 90 119
-5.282060882413016 1.5616186242164574 15.160642241838806 72 84 110
-4.31451365680002 -0.8834320710606449 5.035618420644927 108 127 169
-4.047174918224061 -0.12273879681661176 4.862169235073946 52 66 101
-0.08031074166346497 1.1284781368535381 11.996239299397862 100 118 164
-0.9360447974020315 0.954333855985004 12.606351282573858 103 122 165
-4.189005290708237 -1.410890899465737 5.0884281522798185 96 114 152
-1.61796211973918 -0.43321213221005 14.061945074395203 89 107 147
-2.8338513062035346 0.14125842208361286 5.206844390161938 56 35 40
-4.1997744333506875 -1.498636500607921 6.393647595899264 99 95 94
-1.6441574468962044 -0.24324976444790264 13.974516376577116 77 94 138
-4.203581865940001 -0.7353916978278257 5.17358528657715 56 53 80
-3.6555781640719713 0.4137805840234834 4.880947091094939 100 115 148
-1.290345949326988 2.025520829982835 12.245740075480665 61 81 106
-4.19686380368163 -1.5795367228766541 6.457267077372284 99 88 92
-0.44904595078127996 1.1045061305747585 12.176774465036397 81 96 135
-4.1001976534776405 0.9233045998229361 8.347781449734619 86 99 134
-1.0542372781198277 0.680130208252941 12.765196025267645 45 50 82
-2.4190498629047377 1.2613474926774453 13.861042388321371 105 122 166
-0.3118599133492903 1.0199932079809793 12.102287860101885 82 97 140
-3.8123496073192222 0.18263626545359102 4.726012444363386 78 91 125
-4.955820261696571 -1.8129707675412707 10.078408027649626 83 87 124
-4.24842062565058 0.25916671112661677 8.393279546169865 70 76 112
-5.6378309486178955 -1.7726323214346311 13.602667314241339 92 105 139
-0.15349486548950708 0.44633715348713165 12.426399387756057 56 62 94
-0.3458276818961582 1.057176360664661 12.137390295588038 86 108 149
-0.9839910935904279 1.9872718344098663 12.006655663280782 34 33 51
-4.258862077627861 0.5989384428101068 8.811340762389447 106 123 166
-1.177471376239305 0.5995632903088973 12.964505299704234 58 77 109
-3.713906080125599 0.32582421375447373 5.481012525500435 34 35 55
-3.501117826345507 0.5095488678940985 4.457759297870145 88 104 138
-0.8311817527862759 1.1079465507012953 12.383697109976374 23 25 40
-0.8777308794484894 0.5802874610925784 12.749160424683105 92 110 146
-4.11423824982435 -0.5429711824185766 5.251266218638129 69 74 112
0.5278447589823204 1.9994962159044423 9.628840751697243 17 19 32
-4.096938372300788 -0.9377014588025312 5.834689881542702 110 131 176
-1.2810991230171447 1.5672164192879836 12.476895043834654 24 27 44
-4.03164746302146 0.9431663248581634 8.025044079395755 89 102 136
-4.179157867248114 -1.1782322879136984 6.068839997348311 89 85 118
-1.2211182532564444 -0.5492091857109991 13.729434320147126 102 124 163
-0.1559322100383187 1.1864617989800115 11.98162472892161 34 30 45
-4.144903929033599 -0.4974493557157373 5.074702309993401 67 71 98
-0.12041480304103869 0.9467247728027354 12.111713976740376 105 124 167
-4.128340199234016 -0.2731766065901076 7.259732371307051 92 95 130
-3.4486611454207297 0.7574681577037844 5.108674187447864 37 43 67
-1.3181139254512666 0.47741077759176026 13.184447736524497 48 57 98
-4.692951476159088 0.2730969074676657 17.897601782713544 58 50 65
-4.106371332509465 -0.7202573783742375 7.087017714959344 124 133 172
-0.7159926095102777 -0.7213475450081943 13.472191768712515 67 55 69
-0.05847712256864941 -0.02286259137447308 12.613358683449322 82 99 143
-4.096435281189554 -0.30156727369869035 4.912037204279001 94 110 143
-0.42405889121083895 0.010729144959101747 12.79562954110894 83 76 92
-1.356537961532144 0.8172679216192446 13.043059757887841 67 85 125
-6.484818380669826 -0.781054652385144 17.616886469016436 82 86 121
-0.08333410551850047 0.5704838623338643 12.286289986394568 104 125 172
-4.7307220393426235 0.930668016874217 11.15061788638103 92 106 141
-3.8030683240394256 1.2649589016420872 7.439148752458004 91 104 138
-0.9134995816712317 0.8605714690812035 12.607367034488988 102 120 168
-1.2323621481705238 -0.3856959101045549 13.680168800404322 101 122 167
-4.1256833447148145 -0.6578700641388687 7.005462467657524 49 39 40
-4.948549771265619 1.1607780663335154 12.16137689886531 85 102 132
-3.706652042047529 0.34538651626547395 4.474462182592533 90 113 147
-3.7593805822269606 1.2563561516463033 7.216339075406495 96 106 141
-6.85983171535666 -2.1334335549702534 19.27651289401189 74 81 110
-4.122736326910307 -1.5434249613092383 5.425246909539473 62 58 59
-4.0472868052097954 1.057600845883799 8.307281947538046 102 118 152
-1.6348323381238699 0.38980596194144124 13.546645124282616 95 113 149
-2.0930957355924558 2.350732275742789 12.98810033357024 47 29 41
-0.8778730138982612 2.1238108038001418 11.945209338961533 35 25 36
-0.11613537199679927 1.23783123666504 11.94505143752417 71 60 77
-0.38826728887433437 1.0385586711165513 12.170974488437727 82 102 139
-3.3806742730222963 0.7468564423901227 4.631222614605652 49 53 80
-4.21142473634227 -0.9294619975350019 5.230501224391473 81 84 117
-4.122760453511366 -0.9279350692762381 5.734460445275925 108 121 166
-5.058011429773774 0.4212394051853749 12.20774165775112 77 85 122
-1.1489333645152167 1.0963291469109318 12.614283248989627 14 16 29
-3.761529258510533 0.2798887118198594 4.775404811185478 83 92 125
-4.90320284807525 1.2188621565697735 11.987453636776817 63 69 105
-4.204502355322334 -1.6165160766794853 6.411657803869812 98 112 151
-4.124997474180902 -1.4829694036240333 5.2316358302875035 93 85 82
-4.867290552735507 -1.6238268205444484 10.094985484397617 101 97 88
-3.391615476232977 0.7466798788944634 4.656944545851552 84 100 134
-1.5012874665984122 -0.005417650030826568 13.69157606701462 75 83 132
-0.14665873793737272 0.3653323507814683 12.496708281523084 85 108 150
-0.28405433409703035 0.9991074219899884 12.143105018681918 60 72 112
-3.7262887228492625 0.6207688213243947 6.398620191567703 50 49 63
-3.5374241549552616 0.6328207882780019 5.198934263467783 85 98 132
-1.8020593919645902 1.3007472058794287 13.092066021905971 31 35 64
0.006851662671017091 1.291716804526803 11.88179457900403 57 73 106
-4.825570356719314 0.5761322461134407 11.661841540042431 102 116 153
-3.9969995868383292 -0.759029818178654 17.238688583361718 91 80 96
-0.13419652924674533 0.002692347469358355 12.63960198572447 69 81 129
-0.2346418105675394 0.9063671959800395 12.154528121003354 37 44 86
-1.352122157416335 2.2996995758870367 12.142412384275115 72 94 133
-0.9839982534516686 2.125901752368997 11.982915461165815 62 79 107
-3.6856460790147567 0.38633548988202193 4.704171486075928 90 104 143
-3.993970077739723 0.5747998192173314 7.53502505780271 94 108 147
-1.567370572498181 0.035010736739362995 13.684588299197701 42 53 99
-3.0106960202667006 0.2843607308833233 6.1112577510200765 44 30 30
-0.9431356037849745 1.444910885643916 12.306960585352767 23 21 35
-0.1275824763680085 0.7234761500425451 12.192037713480085 63 71 120
-0.9399272870109495 2.0188993975145926 11.98732633835401 77 64 74
-6.907536205624574 -1.8625409808322244 19.153053130049333 40 39 55
-4.342911576065683 -1.4934283157710504 7.426692585927411 107 121 158
-1.2889762526212059 2.301282304605139 12.13584848738338 78 95 138
-2.012512145175101 1.1554130168971948 13.445094123214838 105 123 171
-3.22276752948509 2.1864488629702072 14.268105315279245 16 18 43
-3.8807785453653443 1.0998328020087076 7.2799493054735285 36 44 67
-5.381572989159937 1.482523537066484 14.358070343501433 76 89 124
-4.443391252610349 0.6886082687937164 9.708362525234113 80 92 130
-0.0013213586473656965 1.4396929844340647 11.832052195997264 82 76 90
-0.7642450290066245 1.3287936926466113 12.212986159752585 67 53 66
0.24174431713704625 1.859670390225429 9.744195601711088 7 47 47
-4.077707142918524 -0.5656113540002522 5.446348122818242 113 131 177
-1.3556445310023524 1.4549271462476405 12.611383269386588 87 104 147
-4.12038262480489 -1.0533780506220978 6.061729568799728 116 126 161
-0.6042759780149236 0.7138355102754287 12.392834716683344 80 102 141
-4.1012388557526345 -0.31306498802177835 5.626837890302345 132 143 188
-0.6343617949227967 0.9602795121254493 12.329485535681247 20 18 32
-2.0511455656567525 0.3873730417216616 14.164127320749996 53 40 58
-4.341319677263086 -1.1371371957486773 7.586742209694202 86 85 116
-4.238769390080137 -1.614985377449772 6.762831248347939 89 98 137
-0.471452185129166 1.1196581242888812 12.183433828672033 40 43 74
-0.3055792176718996 0.004721001130333511 12.760211217206656 87 76 90
-1.1827579760038782 0.7016306596645424 12.938859310085043 47 63 89
-4.33345967193062 0.3406201593927843 8.994902281206581 107 121 158
-3.3950191593904195 0.6761468166700896 4.452212709991378 72 85 120
-5.021266871027649 0.004226985871995937 11.71361437643357 68 77 118
-1.3101808893081484 1.9972836284818978 12.325428334698804 26 27 47
-5.700135877504035 0.42325453659178536 14.54760575175253 124 141 184
-2.3516683467557926 0.4872826498118213 14.518849487027255 113 131 169
-3.457201607177638 0.891048665014309 5.386712544904069 31 36 58
-1.4222365284599114 0.6840733155648662 13.173337158301687 63 72 105
-6.014313454133611 -2.147604253807392 18.129801903951336 117 131 170
-4.2157410293626905 -1.077904366828638 5.24667437475747 55 59 86
-4.287925543718671 -1.264855695388848 7.511210149122653 78 90 128
-2.1635152363209236 0.15642114564716358 14.382718716881882 54 39 46
-1.2716842568545412 -0.24630070508467455 13.59545134567575 27 34 63
-0.7098131442666942 0.8548764125757107 12.461518017298108 95 118 159
-4.2046641225841945 -0.940801306351997 5.1723182323587595 89 93 128
-5.186245517876882 1.2047378862804605 13.269905907352957 101 117 153
0.034806157684630225 1.3079125723769671 11.836669284077038 81 100 140
-4.056105520625904 -0.9322393302292772 6.593393584949348 95 83 119
-3.8786500666317 -0.1080769206642993 5.968096938717454 112 104 128
-0.1434851272272356 0.8359478584445927 12.210968339036782 44 50 82
-1.1636381325303147 0.4173420792925969 13.065202977236446 86 105 145
-4.788025146428398 0.7507598599325522 11.436911485753281 60 67 95
-3.9843996058142332 1.2270052251331205 8.122780932873974 97 116 149
-5.116949574485045 0.9392320838040223 15.679772254183211 68 74 100
-2.4622083629375697 1.3770156515191303 13.862866450673824 78 93 134
-1.1899326241365324 0.7366713560841883 12.874858623220621 22 25 42
-4.1598210500570865 0.19547093214045985 7.987809305925688 74 63 80
-1.3141408142513271 2.338727821836388 12.10798326748675 30 33 66
-4.26177969955909 0.5041118516103124 8.775057760664904 111 125 162
-4.67526540031646 -1.5797538789153849 18.682119208362437 73 57 70
-0.9563382915527258 2.3557113795941813 11.833407349184318 37 29 50
-5.05518366807824 0.7516390803776366 12.323716675828614 92 100 136
-0.942539561249212 0.9883988496335893 12.56056478923592 26 32 56
-3.915714841965034 1.39351718506733 8.019857369782184 58 64 96
-5.332560094704259 1.2907851961389216 14.034252081793293 56 66 102
-3.673438892110107 0.8168853916886223 6.359708972018085 37 40 59
-3.5994661842851987 0.6886439913570138 5.105607993929273 5 16 36
-4.297380120055928 -0.575270268483132 7.92194365758504 87 86 117
-0.1691387566519147 0.2771461551807926 12.484631412209788 55 60 90
-2.8147707433423346 2.190459476661165 13.83065394690266 89 86 103
-4.384068655459721 -0.6887975704822545 8.236043904081841 62 58 91
-3.709727202560843 0.3019585584221633 4.934573534509969 50 61 93
-1.3592054897239132 -0.9425127869756216 14.015475603690643 113 130 176
-4.541112868326504 -0.5064843382456745 9.598195170417046 118 137 180
-2.0394129045013774 2.0204716542407546 13.269303431303141 21 29 42
-1.4807361638005088 1.6241079386775608 12.627461919379913 33 33 41
-2.9395990029848322 -2.885538177217958 18.967919482435775 69 90 137
-4.264848838296829 0.4853459650121896 8.752087023012981 66 63 94
-0.9718088462204624 1.1176089909912827 12.512242427931318 32 37 56
-4.101147610471834 -1.6660051924511248 5.465697157125659 95 109 148
-0.7792628186002555 0.17063468806145568 12.937978360051215 47 33 46
-5.711860888663166 0.780397372253094 15.528957315410288 63 68 97
-5.106474544095447 0.9451729548678212 15.652810866317761 72 81 110
-1.1200536281846318 0.923443152808878 12.733597335040589 21 27 43
-0.41567862058372435 0.6687629805571613 12.373996927414417 35 32 41
-1.73654069232755 1.5636871599309967 12.932784279895493 35 33 55
-4.061544009766203 -0.7146809691917532 6.037201072578238 99 113 152
-3.5350062267263587 0.7138414925210705 5.214570557584707 69 80 110
-1.4196872835014707 1.1015611393262246 12.927622027299641 42 47 76
-0.9132103971087183 -0.5451674207379561 13.489834365091708 112 130 180
-2.056089910553593 0.09574540400306451 14.136885735666487 57 47 56
-3.7616986349545063 0.1888748966932212 5.069495187642549 47 53 79
-4.737182294585472 -1.1017596248496961 9.707144818969219 70 70 98
-4.1360071095813815 -1.043240236216342 6.026838314222778 109 105 128
-3.6186697135083694 0.4451166841330008 4.479277099664611 75 90 123
-4.219005686850449 -0.8923072357484638 7.338063812440885 43 28 47
-4.125783451702922 -0.7818364059445756 6.526488855775047 45 43 44
-4.7234349255010715 0.24656202887409945 17.81844678187919 71 54 62
-4.392164745877959 -0.8413704015941311 8.134979918336915 113 127 164
-4.2481006164693556 0.60839267833732 8.935760943093255 99 113 150
-0.9978690492226435 0.8485823515893932 12.671783328852062 99 120 165
-4.025867875040862 0.6193339781181104 7.780975063914204 115 128 170
-1.84256355388086 -0.5167015258341883 14.351513441168528 60 70 119
-4.207511739481169 -1.1464781542742213 6.113052677844781 102 94 117
-4.0164995481754575 0.6580763244291847 7.788499380860955 62 74 112
-5.938285071346107 0.2187559673117921 15.365355800236397 33 39 65
-2.3954294982827133 2.067722439846155 13.319094031851996 80 86 118
-5.493123641566483 -1.315357162883935 13.337032935708287 114 123 162
-3.9084752566906475 0.003904653284339779 5.057895902655458 84 74 83
-4.048962313185726 -0.5134003499350657 6.983563776348281 39 27 31
-1.9802959465218457 -0.03946721322112022 14.155685814487786 81 95 140
-5.959436527630593 -1.4797923566164382 17.73820367483119 100 110 145
-7.032730701534251 -2.188932861367827 19.295919221484606 69 79 114
-4.53322616983513 1.5427544378851599 14.915089988056062 91 102 134
-1.5212274402861645 -0.41029080965036563 13.947725331249796 110 131 176
-1.493738820308704 -0.5765285702478108 13.997885404371381 116 138 187
-4.137720651338656 -1.2723467172938823 6.222516056974303 103 119 155
-0.9606924774476898 -0.3564348201788359 13.431932956420152 40 42 65
-4.168362538727914 -1.3708372260922448 6.323132416042457 89 92 125
-4.641699887673881 0.9711156183447852 10.722420434491285 87 102 133
-4.628066928216153 0.9893888995139815 10.787086921345349 90 104 141
-1.937258587874232 1.2308218510142608 13.364739356174539 58 62 87
-3.819264534665104 0.16381124894125793 4.759559750371454 80 93 125
-4.817909006575085 -0.2977306504590082 10.25441622250771 28 35 54
-4.995782399263634 -0.49259594778035093 11.373212098549613 110 124 163
0.6872752734899353 -0.022042829560739507 12.454920704908536 75 62 72
-1.7716945177838375 1.3292209021595052 13.125717131053639 80 101 144
-3.7426269312034446 0.30692169309850914 4.6008294804941325 80 93 128
-0.9249391216612606 -1.157592624557607 13.922150903698773 115 129 176
-2.521775878279959 0.8300416652267524 4.654146618562474 12 12 14
-0.5677884776978047 0.9834776037038518 12.339202871806606 100 119 161
-1.278165926686311 0.16946921135711449 13.272146147094093 93 109 145
-2.233256214799254 1.0731515871462214 5.223397911333867 15 18 23
-4.123975487517913 1.0437798624436148 8.513031697499231 88 101 136
-6.313679612421592 -1.2119563408727863 16.286656394448826 35 49 78
-2.2543247304257226 0.9537670108378842 13.87706438778851 101 118 164
-0.8430322501300734 0.25938294178811433 12.91815987956793 79 94 133
-0.18031304239901824 -0.25241590027536953 12.845423981965762 119 141 191
-2.1225263504371976 0.821094393291944 13.786288288519897 45 45 71
-0.9719943648759879 1.7380692344819784 12.165252266850038 19 16 35
-1.6361478907263354 0.6356459866872508 13.412283601805106 56 54 76
-5.680695969396804 0.6441487123545552 16.199919290831883 61 67 91
-3.772529295926695 1.2349951477850616 7.164627023988954 70 78 117
-4.112733571599737 -0.3800942822944525 5.747791441002117 133 148 181
-4.148093561756951 0.2218850547159141 16.984294677319742 68 52 62
-5.706706323140026 0.5180084523760625 16.065871048772074 64 61 88
-2.6131440710906126 0.8431323548150976 4.733104451607277 31 29 34
-4.050194357898233 -0.9658800825902806 6.306216875587345 35 24 41
-3.759066665953056 0.27824532491095466 4.77740273639946 81 92 124
-0.4760229146064188 0.8921560438330691 12.28659814564109 21 19 41
-4.000879496269694 0.7492322119829701 7.77057256592389 79 88 119
-6.527488414250712 -1.6248936815803328 17.835719013836645 75 72 91
-4.152362245991671 -0.3137036519186648 6.731017106184305 124 142 188
-0.973227589551291 0.6332557404317405 12.793614330316496 83 103 140
-1.397459520628301 2.2253180909475128 12.280192702643362 68 83 126
-4.005737416648619 -0.05021987755878369 4.886205134369348 112 111 109
0.3403842873895437 1.886380926838741 9.39765456941143 63 87 121
-4.974770853106409 1.473921581579848 14.741992679458743 50 56 80
-4.895242349977736 1.5786847757041134 14.553439827456431 66 71 100
-4.113287226227098 -0.8836304111467913 6.159706838204785 62 74 114
-1.2489731911165525 2.1267712978204507 12.166062177973243 37 40 71
-4.433330287280347 0.9565000861828593 9.522091407907602 30 35 55
-1.4724918448348556 2.210340211004861 12.286823576061774 35 28 36
-4.721669373842871 0.11962643397437027 10.101589964116165 130 148 196
-0.8325365169448803 0.1746703551991352 12.970654730338014 71 83 121
-3.7739138052124965 0.1751251788418493 5.219204196382572 48 63 106
-1.0350749577591518 2.2129868935549557 11.96128627942797 50 64 93
-0.2150314585479283 -0.7220997021958678 13.175590137917542 108 105 132
-4.022141203937729 0.5751013686528283 7.653781853091246 103 118 157
-4.103657244695262 -0.13842196045837454 6.721427941872003 115 129 168
-0.2551141687341294 1.0447068904708428 12.141056753813544 103 121 167
-6.946470586175271 1.1481264179197417 7.784888749835305 14 11 28
-3.8303938812694818 0.15274400160538895 4.7451946761999615 82 95 129
-1.4603782366272344 1.1041143415345687 12.951257745574388 51 61 88
-1.3633765320235471 2.1772678381605504 12.241571733490147 51 59 98
-4.431312026742214 0.8521911086991375 9.742345929506676 108 125 168
0.2868556873793735 1.6759573662777707 9.801246785698746 5 19 19
-1.1532520053260145 -0.09382333164413893 13.373838594495753 88 102 147
-1.6770995242118785 2.263379089476071 12.477703273111404 34 24 33
-4.159916837220811 -0.4284892586096074 6.666610432818283 115 132 178
-0.9360557307618554 -1.2019642796643009 13.968780125588536 116 132 181
-3.8824221990310703 0.009347150988841276 5.088678032379299 93 82 80
-0.7336145099380544 -0.7143600736212848 13.50760272360524 88 77 93
-1.1662926884904268 -0.056153129162906275 13.448676123407823 89 98 141
-3.3179062531930077 0.732253183200511 4.678884526602229 66 41 47
-1.7582530002889827 -0.24100274446748982 13.919642818332562 102 123 166
-4.278069482063205 -0.5672639934366625 7.816337151075123 122 137 180
-4.071078969427433 -0.12643624093512695 7.159578375589615 91 92 123
-5.408666543223745 1.1122451594827774 15.524062290866677 88 86 108
-0.32404251375618426 1.0276579614209231 12.133914653400591 87 102 143
-0.8769815007075239 1.2529280997621959 12.35381947028712 19 24 44
-5.341460712610055 1.6364026210614713 15.04008311382015 54 56 79
0.8964556466095639 -0.7913201985863644 12.913725404016098 92 83 102
-3.780965649835941 1.2602206305918136 7.293344316590681 71 79 116
-1.09913208033508 1.3382615020201873 12.471990949077686 59 73 108
-1.2169455609439013 0.697810820283306 12.96924549129083 25 27 48
-0.98969882048523 0.5270713991522695 12.874440498238203 111 130 170
-4.0388059541138395 -0.6004258313244366 6.01414919658669 90 109 139
-0.37816280414213316 0.7912500290097413 12.334713837156656 54 60 92
-1.4782513356336358 -0.13637534123769823 13.737968342521528 53 57 102
-4.03361525271492 -0.3017790518487195 5.006442898761425 74 84 119
-0.4859944734550897 1.0788176992236957 12.188915120974782 96 113 156
-4.1024377015407945 0.669416173875943 8.062124144656842 89 102 136
-0.9601920831980436 0.7928536292636754 12.67986039328807 89 111 152
-1.26620403573051 0.03460268928782545 13.392784917799684 31 31 57
-0.9461765526187543 1.4444789855561286 12.31159515091596 23 21 35
-5.890906993775256 0.022626448288088657 15.130108466307144 37 44 73
-1.3067783242153337 1.99225457195967 12.295412211947198 28 26 47
-0.7881855121164388 0.6729182321774745 12.616531062347901 38 36 57
-0.4368001494614008 -2.6333408638288174 16.264310517738547 29 33 62
-1.7540491253259647 2.6038547921485806 12.283526932965817 57 51 65
-4.306192744492086 0.4003124581479377 8.82531692941788 97 110 144
-0.9422885683969703 -0.22459941166825279 13.281446534915679 31 32 60
-5.665724894739007 0.5560062793306244 14.450973280168775 124 146 187
-1.5228377787261986 0.39839223556549436 13.38455596662343 67 81 120
-5.367941155402944 1.5625846435514124 15.172911020832684 71 82 110
-0.32143031840355984 1.024035589515548 12.122758938394142 87 102 143
-1.4455924631479198 0.6418424791646739 13.20730834283027 83 97 136
-1.3914610892339467 2.46181023228668 12.007428887125922 61 55 69
-3.6092409996467327 0.4748942095044967 4.737682980652118 83 99 135
-3.8771332473924507 -0.059451657927460204 5.444376601157397 104 117 159
-0.3462308097992255 1.0880921807962092 12.112390179695682 43 46 81
-4.112778939869319 -1.0189538119987072 5.787773265916931 91 87 114
-4.247740296613148 -0.5233555479216637 7.6542393336816374 123 137 182
-2.1462450046970747 2.173765637950948 13.073079793016475 83 70 88
-0.9185750750261853 -1.3004823529513303 14.056223366404401 87 92 134
-1.0001720127290787 -0.3152172246076931 13.430340731362989 103 122 155
-4.038022718339272 0.80267991922658 7.928370225665771 94 110 146
-3.599324637567623 1.0853035638634256 6.332228038894692 71 81 108
-3.749470782195232 1.2442109580025176 7.156543205057074 90 105 138
-5.486954470186351 -1.4240830541946732 12.915042304111742 106 122 155
-0.9220895515681446 0.03792626817506764 13.119468006152205 95 110 149
-0.9123274458370595 -0.168501260867468 13.255545427186215 28 27 45
-2.969512918472413 -2.9797332513297317 19.12321271429931 71 89 135
-1.8753946803770378 1.4983239788902674 13.1020187664637 102 120 166
-4.1940388864405564 -0.6118788283318886 5.1575735854414315 77 82 114
-6.489824197251114 -1.3903300179812117 16.871123267091566 34 43 72
-1.0435687816388588 2.4950501417195308 11.791281728135168 54 52 65
-1.9479730954129881 1.9485994106878393 13.11389577634519 76 94 130
-4.827599519844955 1.2451121230450886 16.695999330504396 82 83 114
-1.2977622669174496 0.9095492261082707 12.7967925296446 15 15 23
-5.141338230529005 0.7290573341673107 15.440539313741914 104 114 150
-0.5921263916036377 -1.2919703244855527 13.815355790360014 48 38 49
-5.00579735143892 2.3967436224859133 13.26571804634741 67 75 111
-4.180338634646106 -0.37595346516696676 6.871045587439948 16 14 25
-1.3639717580986588 1.999053385274676 12.335436906013335 66 90 128
-0.3750283416273702 0.7902286604244263 12.318811680213363 52 58 90
-3.455328378338858 0.6068191509364448 4.537878718363381 75 85 121
-1.730787751922162 -0.24258512506673563 14.04436202365913 112 129 172
-0.03229415501865635 0.6735032348481971 12.136363285462528 105 126 173
-4.3781323044172105 0.11876515710332243 8.844766599050121 98 102 139
-5.9777474989514845 -0.6403297656144699 15.616481603183196 111 128 172
-1.1791050495343287 0.8537534976636297 12.794603705182483 21 30 47
-3.4785261074333653 0.09373114389381823 5.36171190846402 99 69 79
-2.7216398279157255 0.8324492928625999 4.569359380575913 40 49 58
-4.230994270338429 0.7676572132028023 8.879003444739922 106 122 158
-0.9374695222003562 -1.3387755075330945 14.020818593504366 112 129 175
-5.408706222033651 -0.7282062103941371 17.766948321462127 108 104 129
-4.12941118904418 0.2223720662885224 16.933844720618772 69 53 63
-2.151851476298303 1.5512618017853133 13.437667821595445 94 113 156
-4.864893355716107 0.12542980764080197 10.548514850737753 92 114 151
-4.354299520860113 -1.0090213551414695 7.9136365886999585 112 125 167
-3.856723004408862 0.5088402318564011 6.767709877705707 21 20 26
-1.3407180738501285 0.8112839892282462 13.000732965477601 76 95 135
-0.8766260220667041 1.2516585891187528 12.360623524210343 20 25 44
-4.1212720374399225 0.8670252065235335 8.356845510919726 94 108 143
-3.7274017050042216 0.34904221289045595 5.742413266566557 34 34 44
-5.215566767348516 1.5641012010130413 15.038043411949708 75 82 111
-3.4328018308753614 0.6886944277299129 4.649743967815796 92 108 141
-5.260062167916689 1.7945064658311873 14.032738770743618 56 64 101
-2.056218402059556 0.13113698806573215 14.273045034050499 44 31 40
-4.037244950900647 -0.5764898951833892 6.176113705216958 59 59 71
-1.7980010355398601 1.4130405328206648 13.05682989844174 94 116 157
0.0539867346659177 1.3968238465439027 11.81101162526435 61 58 85
-3.9618444905326307 0.9127998974462506 7.443210957527576 32 44 60
-0.856967516880306 -0.8827019419696325 13.691834346828461 108 108 132
-0.29807474655881644 1.1882169891514152 12.0300022432866 48 32 42
-1.8732808688949505 2.6275286166232417 12.323307234560794 35 32 43
-1.3886739707630118 1.8595481986027902 12.406751727641833 96 115 158
-4.8256386771861814 1.5959781556082482 14.450764387624066 92 107 138
-4.014474169520621 0.5042527004218732 7.551723895386494 101 119 157
-5.0786953350580335 1.229755106686957 14.971045187627334 96 112 148
-5.746653404901233 -1.813167996926809 18.515804177523922 87 100 132
-1.0614566361626503 0.16494201148379528 13.045834818491999 50 55 85
-2.0346622170573547 -1.3495887049104662 15.014887344689697 66 52 65
-0.44902042552523735 0.4044444450336299 12.801450363670067 105 119 154
-0.500869423211219 -2.857090482200429 16.45504443429109 15 15 25
-0.8576421681124768 2.4865185766633804 11.623392111560934 32 26 38
-4.501953212287319 -1.5484636583756701 18.482392107702275 80 68 78
-3.931664403696414 -0.5459584506694574 6.860632378532834 94 86 99
-4.2798342999543735 0.3547115926658111 8.73710409824856 65 69 98
-4.238792022497287 -0.9912466219545687 7.157544420932567 110 107 128
-3.942077829867324 1.0642858548887852 7.881214502508853 72 75 110
-0.5031150987443088 0.8675916777522721 12.32564427801895 107 120 155
-1.076150367107001 0.24245195432778122 13.121390198664384 86 101 142
-1.509507430529265 1.5411813600517543 12.703060251561038 27 24 33
-4.101513746124747 -0.7318576031848657 5.5840694836479905 64 56 79
-3.5653929142126346 0.4849686495575126 4.349467638278629 89 107 143
-1.8787470727446864 0.011708082756496315 13.963730022728202 91 108 151
-1.1651588486341746 0.5272531105182562 13.017629281048112 63 78 119
-2.217034367279186 0.36884373818395955 14.4658188269423 50 60 95
-0.9442761235368444 1.3905788769710374 12.263447201999101 65 84 116
-4.720539032210882 -1.3995340718885818 9.364818318480332 66 70 105
-4.086732935816421 -0.8179146516935917 6.267930829234431 52 42 67
-0.21964617037711015 1.1708869511511173 11.991489534451471 69 57 69
-1.3492319953361442 1.5932868860543765 12.518579948522406 89 108 150
-1.099914494206057 -0.03424360736142281 13.267236546140335 91 108 151
-5.8073362966377235 -1.700690951756755 20.620251579923107 92 109 152
-4.160960404354239 -1.2749851996082473 6.2924995989263 93 97 132
-0.5364429295199556 0.8346798534555534 12.343980380456395 103 121 169
-4.392496597253246 -1.510497056520401 7.393530276513337 78 75 106
-1.4972080293987586 -0.830743223434721 14.196488125669072 115 129 176
-1.1177222874222272 0.9243812159349578 12.721149937818161 23 29 45
-5.047556253389852 0.7534815161760098 12.318865701239067 94 102 138
-3.461614755604056 0.5953298403773593 4.413738957638066 73 87 122
-4.28702818206646 1.2994917358173073 9.213913400108172 30 33 48
-1.039215462610969 1.420674253849035 12.373988470724125 21 23 38
-4.553310373764751 -0.47410940345540137 9.239469497186521 95 103 140
-5.994429550594295 -0.2323430415338097 15.796100831877071 96 91 113
-0.3861328950385211 0.006120547318333394 12.732748250038636 100 91 110
-3.8709995009622173 1.4938289848008626 7.884439267967737 78 83 113
-4.78846355871207 -1.3385534108849777 9.836411695062365 73 72 104
-0.6214851084241995 0.7286810644513082 12.400815715068102 90 108 148
-3.833837517975251 0.08684286335866366 5.594537879414876 89 88 119
-0.7385246146845906 0.20772638813283945 13.037444860482239 42 28 41
-4.159478745288599 -0.8728640721666577 5.599694552158261 97 109 151
-4.485062830982661 -0.5403399102939912 8.914433397280503 111 115 153
-3.818284642315429 0.1065176264453466 5.038878381569831 111 128 172
-0.7072770674976183 -1.396120173383708 13.933962179876959 73 85 127
-1.0021949403513442 1.627133691122176 12.22988195628139 23 21 42
-5.860215583424853 -1.7431665842828648 20.46185719807327 54 48 58
-4.1490886293123115 -0.4529250244012353 4.958612555860013 94 106 146
-4.783419854266206 -0.4182720923054515 10.239728085068304 109 114 133
-3.8656660539938508 1.0234916185525351 7.47078146627394 97 111 148
-0.4759612583678813 0.6795865767933227 12.342652196783398 35 31 46
-0.33751032508494994 1.1878848913962556 12.050619275288298 64 48 61
0.10390358964802451 1.4065336896759497 11.778281671826807 104 126 167
-0.44464938857551717 0.8923983006322486 12.291902311979133 59 70 98
-3.9463569082133874 1.3090068614247876 8.155194977378281 80 85 115
-1.1112751220522628 -0.10196530898532569 13.339609730773303 79 97 137
-1.0699389471245875 1.1215981827714756 12.595058767053889 82 100 136
-1.181277900303344 -0.21763701682468772 13.503878309287892 84 101 144
-0.6095063928828497 0.042181708760696816 12.877291909493643 41 31 39
-4.1522305638855315 0.37737883020014906 8.096809312068007 106 118 156
-1.0103074664603606 -0.3848600201461969 13.447312762110695 94 108 145
-4.773388427965123 -0.5487287218989767 10.319275818075523 114 129 170
-0.3726933980779397 1.0138440720433175 12.170200549541537 65 77 117
-4.349590405512447 -1.2976992169164363 5.064732530654332 51 67 118
-0.7910576492899196 1.2557812322811326 12.317095855346437 59 63 98
-4.224841099997358 -1.4906222281518973 6.758499536976037 107 122 165
0.6142420380587523 0.6166840786938704 12.086967080019232 88 80 95
-2.284853897371171 0.9696847993475392 5.029052528630876 60 62 77
-1.8118715108103107 1.2730112280576142 13.177630313317215 66 76 112
-3.895428623142222 -0.12485333023258603 5.245549884138838 50 52 77
-0.5245041782437703 0.7744223429733963 12.374335648544866 61 73 111
-0.5799356328479834 0.7601617648076565 12.429239075395417 51 57 91
-4.438382540594876 -0.09131942267772401 9.084698537942689 89 89 117
-6.091628673031674 -2.7229225545753555 19.232893364596897 120 123 156
-1.8825583388553295 0.8091824146509127 3.8988808560477755 58 59 80
-4.62245950378992 -1.3983882059661403 8.607953139258536 137 153 202
-1.976052339065054 -1.5056519707694982 15.021378654976095 108 125 171
-5.016502096469131 0.9750228609262866 12.500083824039246 99 112 147
0.789926553032411 0.40530831188365163 12.372610106839282 53 72 105
-0.1822944087110254 0.09570515760469704 12.612124742805431 58 55 76
-0.521117232892334 -1.3084518972204584 13.875373374198446 74 58 68
-0.31481777524804244 0.8983835495961382 12.167281090787375 81 99 135
-4.206267498475331 -0.41052971281542594 6.917868378398779 80 89 130
-4.243552597852935 -0.6070078626161143 7.650978807925705 88 105 149
-0.7356429368611952 -1.430896993559173 13.973974038779225 108 126 172
-3.965242499469925 -0.5652270566174766 6.29562594011552 42 30 32
-4.661295112972965 1.5289075097533802 14.827057720328819 82 95 127
-3.9736281363452153 -0.10677524408141088 5.05338973954121 67 73 107
-5.345682341587283 -1.7262593907021597 12.217219462811746 99 112 147
-4.025752873686747 -1.711401603470464 5.231898879526724 58 50 63
-5.513426141890328 -0.49353012543649316 13.468718215470133 85 81 108
-1.696605207837769 0.20663909863193244 13.709440081075003 54 45 62
-2.9265958728516632 0.13422450436783742 4.955083943107531 59 38 45
-2.8215931498090687 0.20287837550321985 5.1225320363458895 20 20 22
-6.590297271818773 -1.8192353798538685 17.578727586195182 103 108 140
-2.0763453775802385 1.065798275562321 13.649792798764883 89 98 139
-2.3744981328581005 0.5045869078549767 14.459831402990652 79 68 85
-2.040402013381152 2.2217360715351724 13.135578446801047 23 21 42
-4.081802686851046 0.9688664619740586 16.459301399548696 68 51 61
-5.012015573977487 1.2313338803046923 12.591483861991572 109 124 165
-0.10824725127030231 0.048087427603599006 12.540041178533711 108 126 174
-1.1974354428430523 0.15774438436492125 13.25283347489241 68 88 123
-4.715840398012192 -1.0529120041014945 9.6006273206001 82 93 125
0.5099607880440588 2.0776728541971203 9.554500701702672 38 45 63
-0.11867147163619723 0.5321187193734134 12.32530375114817 93 118 158
-3.759175192920238 0.36048903560436846 4.555162304153805 76 90 125
-1.1724801945097696 0.7097821998078635 12.920859251388716 58 73 104
-4.23133264372834 -0.6018957552889045 7.530514377404328 60 70 106
-1.6496637735709827 -0.3249887454925105 14.039367006289236 49 57 106
-3.413476387005888 0.818667685675646 5.045616621659183 76 85 116
-4.042929148445933 1.2453796190343998 8.427153575903802 102 115 149
-4.938915669927455 -0.7473099368547705 10.868241092335193 114 131 174
-0.9741366147674737 1.9878303284460357 12.042279289375953 18 16 30
-4.152004652395789 -1.3475088746252821 5.237835980886109 83 84 115
-1.4479470441254563 0.4188262885793992 13.351448515543831 51 57 91
0.43508690098593084 0.602671810509922 12.058418541542272 57 39 53
-1.573724255804246 -0.3286512378656195 13.89915459932569 112 134 181
-3.593452344229418 0.48029941531329395 4.474850112751924 94 110 146
0.050444185572678886 1.42199207819917 11.773431988820406 95 86 105
-2.0356972614889886 2.0150784034145737 13.2517997555111 21 27 41
-1.968263631488796 1.4302176290859618 13.231797292713416 57 67 103
-1.5134007286634343 1.3765245768123 12.725282999718061 30 35 55
-4.354981559597102 -0.17308169377649588 8.109211154035199 33 39 71
-3.9839084613143703 0.8682707543013636 7.555217374802899 66 63 92
-4.63013431277411 -1.7099011152568715 8.776842787863346 90 88 110
-3.442080226295353 0.6646473295745727 4.7150034389190605 96 109 144
-0.4009543238855489 -0.11489221981681617 12.873242928217707 113 133 183
-5.926259201031135 -1.9255905008649246 15.008630777007763 86 99 134
-4.086728654136622 -0.780223178191451 6.247844078380823 48 55 83
-0.9426321606054223 -0.4393738395573995 13.492070863421455 89 108 151
-1.5799820171221888 -0.6582139110989903 14.152889210447725 78 95 138
-2.757287920239924 0.13182164100736346 5.15295000509818 105 83 95
-1.0933710770441645 1.7009716421646652 12.288243664147567 58 81 113
-4.600208042745424 0.36868232275872553 10.203994100722895 113 109 132
-4.822213037115198 -0.26220712159891957 10.32937889466437 129 147 193
-4.034343332032931 0.7070594947622116 7.8934699639198875 87 99 137
-4.375786723561176 -0.7050186496666089 8.271615101178073 83 97 132
-0.32685727090377115 1.182457272194013 12.003834185606546 64 48 61
-1.931186230506726 0.17399145396237584 14.217555677234833 60 65 87
-4.9725202730502005 -0.8360793743639077 11.077811743782785 104 118 155
-0.5125504120304207 1.0814469654336019 12.23443191510261 86 103 147
-4.348790044903239 -1.3819152768600018 7.10323022199922 135 151 200
-0.9669936194362693 2.1884109761945605 11.931371330284142 51 52 82
-4.152581535336342 -1.1090092700076886 6.103477135463839 112 126 163
-0.8883249394001883 -1.3294452430459605 14.061631125888328 102 99 120
-3.7554030700344696 0.15195842727769066 5.317392915425089 61 81 118
-4.855037519090361 -1.3752411169174592 10.119222826117875 108 121 155
-3.9989407362677785 0.8311347071402194 7.462788596931111 109 128 171
-1.5208785153655269 1.0956811563120372 12.988710345623266 21 20 34
-4.795638656681305 -0.5152426606450834 10.444022775853185 87 99 141
-2.8530853900658695 0.2499266491532781 5.062307139928614 74 67 59
