ply
format ascii 1.0
element vertex 709
property float x
property float y
property float z
property uchar red
property uchar green
property uchar blue
end_header
2.6592878427588555 1.1068202108112728 6.11616702088869 121 133 171
1.2752394184342082 -1.2585428444352549 5.216471328232371 154 160 196
1.512215063414329 -1.1738113038411684 5.450339060126344 83 95 121
0.06578722983461924 0.8115872959972874 4.2870223406402586 113 127 156
1.622782570904113 -0.26970287357066636 6.129409763551173 80 83 114
1.8819029478617462 -1.3827802652814853 5.843442371431569 152 164 190
-0.14069964626573128 0.8196541331088812 3.9333213917566687 131 138 167
1.3365771277722314 -1.0642403450108557 5.257537335770795 173 181 217
2.6318219595953574 1.1293565662028051 5.933552893252491 79 90 120
0.7850905290254846 -0.8144918181361928 4.673752733084764 170 176 210
0.900178322907185 -0.3860048013352368 4.726989075130328 168 174 208
-0.8858070421011844 -0.12997593183176256 3.7498341128222714 118 129 159
1.338972294578695 0.22888956731809296 5.100463479923172 124 108 134
0.32808947967892665 -1.216839184829735 4.2166049656796325 124 112 134
0.34592575578784684 -1.197568380795239 4.260886804496782 126 113 130
1.631743226419191 -1.2885362647629017 5.612146627755274 147 160 192
-1.0290183290467272 0.8962686434602709 3.392581461314745 47 48 68
-0.9931097521213162 0.8716070556962949 3.4133273465757994 62 57 79
1.2863096705757657 0.8139212006288807 4.906990866450313 65 71 85
0.9547460501597755 0.6881553065913196 4.665891425073417 78 79 99
-0.16081767148699297 -1.1792204899687486 3.746492959312145 152 156 185
0.19433280819667317 -1.1417630089066542 4.08199215367053 90 83 101
1.9815786306806313 0.3296700475560065 6.347866935062529 45 36 55
0.3320566088419535 0.9521905955213606 4.086012444852091 103 113 140
0.32087657784051105 0.8795868488555032 4.25204004599483 104 119 152
2.6544101173262256 -0.8433786117965894 6.574854067308962 140 148 185
1.6264691814189651 0.9957678921279194 4.906617851036097 98 111 143
0.11180132076032918 0.9102142311978242 3.7253923464945347 122 136 171
1.7084282380942415 0.3308841688045421 6.065958141316988 42 62 95
0.2463872799404612 0.17872375139439992 4.874309300810406 48 42 56
2.703539468837707 1.119672348555895 6.136623272564587 73 76 109
0.7670414272089083 -1.1137185942605397 4.689632957012263 162 166 195
2.134202419470571 -0.0372182631523131 6.339443735427851 88 84 111
1.7234242359506402 -0.6829176602264833 6.2106842100834445 34 28 40
1.3353455291972165 0.9589358636196621 4.939127087172683 80 82 107
2.241495100284195 -1.066866601484881 6.1811225477385605 108 107 139
0.862047787489954 -1.1211103918260144 4.78623799973732 140 143 178
1.6898661700256252 -1.1863285345546208 5.603060062320019 61 65 77
2.6866682509838626 -1.1032635381809748 6.616368137556744 162 172 207
1.795639022613745 1.0761922275241846 4.928630990461107 115 127 167
1.732097640299251 -1.2977024417828338 5.64083681798543 130 126 153
0.5986766331462384 -0.37900411381050914 4.54018079715328 78 75 96
2.9362855033530524 1.0759156846418994 6.567699127626807 56 62 86
-0.7513602314991371 -0.7900065465090015 3.968516231159442 72 77 99
1.028966840356584 0.7993445280250202 4.6545175672278845 84 91 110
-0.99283732382803 0.22705440340527272 3.5728002404502255 119 132 166
1.6601706651995196 0.6093052366714272 6.054898617569094 35 47 71
0.5425489347630049 -0.789266593262291 4.416240806413346 86 76 101
1.4476102038608767 -0.6238735054300898 5.73490480205676 149 139 166
1.3457960586648965 -1.2242844515336477 5.313317337095626 166 171 203
2.217364905528162 0.64842835588866 6.309310275760218 44 35 52
-0.2847898148520025 -0.7120352745527836 3.551256368048956 75 60 83
1.3534872167049887 -0.022686747188737557 5.1395566489770514 77 61 87
0.2551929177714773 0.9056307512132227 4.18152825328367 102 108 134
2.048469486588395 -1.3768123788999438 6.0378512776675715 163 168 198
0.2975255335028625 -1.2266512100683546 4.184117907695567 71 67 82
2.9064256903465857 0.27128033819962566 6.688620412710241 151 157 193
2.636174702650874 -0.8739046806096411 6.58055860314665 171 185 224
0.28827625938013696 0.8856908155680354 4.359157494458792 74 84 120
2.530681225353193 0.14222458940544555 6.358823675675785 74 65 82
2.4212358693123432 -0.7018619901456657 6.350236144129499 85 80 103
1.7048208368072453 0.024447041282653466 6.107727367703295 42 63 94
1.904040524123066 0.9448866728242263 6.280556392239993 59 58 76
2.1703246941840053 0.7453053699333155 6.28130281408598 62 49 59
-0.7589843331255768 -0.33149583990156484 3.852541348792819 83 105 146
1.1173563683017818 -0.16563716345539073 4.913888383250333 175 179 208
0.9245821279414314 -1.2654921649726083 4.874950102384852 173 181 217
1.3350279422477953 -0.43144367483028145 5.179651624719296 129 111 135
-0.06965848133782468 -1.1851739969996686 3.853429797936004 171 175 210
2.8600595415482535 -0.2927399611465631 6.709300430613472 155 168 200
0.7452421969665333 -1.2632047813184115 4.6872330439742536 177 185 222
1.8958180623636882 1.0813927996373127 5.0250550795697135 108 118 154
0.8642486468262591 -0.9954263552645869 4.778854215613729 180 189 228
2.509816630240793 1.147027672427997 5.640471533799179 78 87 120
2.223803081252793 1.1593077478162677 5.213508120617807 59 68 97
2.6267208083029336 -1.1428130780084413 6.5730225023964275 150 164 193
-0.8199620742689594 -0.5190468050323257 3.889413201137633 84 95 127
0.17605217886701252 0.009274363446558914 4.88205420712265 66 64 85
0.9640162575961511 -1.232948066009783 4.905479078817665 169 175 209
1.0553502520205968 -1.269161468005501 4.999847441572507 157 162 191
1.7303639549055863 1.0069075489514387 5.171833915034128 108 112 147
0.4726760249266448 0.37546136738929214 4.669115406627863 63 67 94
1.437760691258997 -0.7940197400090837 5.332717110014401 47 40 56
-0.7391853631070798 -0.4939836382863041 3.9493232012636352 45 50 72
0.10458675714945449 0.9595875355247209 3.694503806575332 126 137 167
1.7510361209391405 -0.9982774182672668 5.791495941971727 124 119 149
1.677023319810453 -0.8351086915282606 5.851406606091884 40 35 42
-0.06359080062974194 -1.1703733702019243 3.8452433692401775 128 133 171
-0.2161564584279105 -1.0195462694225659 3.6483706248948558 81 78 87
1.5779503880299888 0.6108783540915432 5.969778275491289 46 66 103
-0.7641108327508246 0.7749512534747438 3.6682928472022645 25 26 46
2.725999678973232 -1.182099037582533 6.687805050595 138 148 184
2.0645810188016807 -0.05642954791489309 6.361341822066118 65 63 77
0.7107012687130047 -0.6517962853053298 4.526660563520096 72 71 89
1.2652474659859385 -1.170898715695161 5.203864606182036 158 163 195
-1.0796110636061338 0.254803433535704 3.4712897386318007 127 141 170
-0.71537079335647 0.8544838800953054 3.6707294442003184 45 56 78
1.1493656127465774 0.6168813554804677 4.846322997141834 163 174 204
0.16622531197301443 0.8705383985181268 4.242813342709247 90 101 133
2.7916268638741943 0.5704742390406545 6.547445841135567 170 180 215
-0.09065798811363067 0.7566832408383496 4.305793500522598 101 115 144
-0.11035294535360142 0.8635340732113979 3.7930237879970754 108 113 135
-1.1034148842525533 -0.15114323219791495 3.5486970885511986 126 139 174
1.2228611397619202 -0.06408271703534806 5.015000151879719 153 166 200
3.1379271411688143 -0.4127288435046389 7.018562891352714 171 177 211
3.0903662222470483 0.14765662959163253 6.896487522956718 117 133 167
1.6690855963368538 -0.3021007342688738 6.188969787010912 28 27 41
2.555658355703592 -0.43622041149607477 6.415744276277701 99 85 110
1.8173235660897151 1.0757748466022157 4.935427812521666 116 129 163
-0.7758736952555438 -0.5971716622018333 3.8874992554436267 66 87 132
1.190837437353508 -0.4072450930884201 5.0247583852884725 101 113 139
1.9949296713383284 -1.4009230182639765 5.96007941477687 174 185 215
0.6206741304507981 0.07579882460909035 4.572254490168766 60 49 63
2.4885172181740076 -0.12107276593042313 6.321512229436842 90 85 107
2.3466379408261338 0.7052080958786622 6.302092585181402 36 32 47
-0.14089106538176832 -1.0786878676697926 3.755188882672674 173 179 211
-0.7570348012892418 0.5289384842709702 3.6849119282796527 55 67 91
1.1683841796816246 -1.4796220593744303 5.157863097333429 182 189 231
1.8956000776735837 -0.4938537972914516 6.372961090064749 60 58 72
1.9586342610371654 -1.132206786337361 5.918185189624952 109 100 127
2.7169394900555197 -0.06287676745114885 6.483404731471541 152 163 195
2.391386260047342 -0.8589812126988251 6.313451381652576 70 60 87
-1.0486798024858073 0.34400132104034786 3.3639498766255778 106 118 144
0.25099828268885677 0.9110230325395534 4.16976140446609 97 104 132
0.6493140860330793 1.035691813442847 4.266069161563359 117 132 163
1.1918212508451644 -0.16390678418907254 4.999138994898341 119 129 165
-1.0257465837266668 -1.0678127996775735 3.7628265317948855 100 111 143
1.6670382234275307 -1.083913574816947 5.610838699173379 75 65 99
1.0764852990531153 -0.6508047861543501 4.9453880775529795 168 171 204
0.012968114052956479 0.7747062644534084 4.408125003252924 100 113 145
1.616633231170606 -1.2976851473744733 5.578709526633956 136 146 182
2.2019864652272187 -0.31495563539943444 6.411587223302528 33 29 43
1.7534580782336788 1.0221079193348055 5.038451368737282 104 119 150
1.9638063732116242 -0.25420465871226317 6.417816797383265 84 80 107
-0.9206981128932301 -1.2621884881675498 3.888016134280228 66 72 106
-1.0757237964650304 0.15958587402300664 3.4937602299375556 130 134 169
1.199488970052258 -0.6547981870318277 5.076845335701905 169 175 211
-1.1096532344004528 0.2085836931581395 3.459051942416295 113 114 145
2.535250933093436 -0.044588570930891955 6.388604464858317 70 63 81
1.4615625330848037 0.967596545834469 4.902692289931799 54 58 87
1.8351133122145105 -1.394485763991311 5.814631848034921 38 45 71
0.4254507202722455 0.244662257899749 4.733751704211709 57 61 86
0.8828486351203906 -0.5226062366066201 4.725155426828602 164 167 198
-0.26331869432986843 -0.28258437496723854 4.702185519204895 28 25 32
0.7801523984835963 -0.9975538644179228 4.6838630034161195 167 170 201
2.078090656958845 0.6349505114909415 6.306078049057746 78 69 90
2.1802133668963397 -1.4221029198732007 6.14324820765148 86 81 103
1.2772306787128473 -1.2031273379546672 5.219778046707667 143 145 183
-0.8954630153538929 0.2610981477398993 3.6854319466369696 136 139 170
-0.7439825800641725 -0.5305496982503453 3.9364200770318223 65 70 92
0.10052956762780191 -1.0008726160246506 3.986799535829933 70 63 79
1.1844472708224807 0.8994455190199483 4.782619484567789 62 67 87
0.6972874200374656 0.09595550651016502 4.48770659047695 71 62 79
1.3304596780179965 0.965790042551145 4.930936796646504 62 68 94
-0.8215618663883334 -0.3011634953211231 3.8452630385645543 87 91 118
1.600649940718298 -1.3784214395710763 5.584080900779178 175 184 225
1.4350527918000253 -0.8762773891001575 5.337635469855888 133 117 143
1.4678901849216741 -0.8575653575882063 5.367913775342205 40 33 49
1.2253410662518716 -0.950118958346246 5.135518553245421 167 176 215
2.400159396953617 0.8350549849059384 6.2090523134446 87 72 91
3.040430680063613 0.9967543602179816 6.718913599739468 102 106 117
3.02164938858761 -1.3913095148550165 7.034766267345733 133 147 182
0.10987395870544223 0.8700826980819304 4.039018368630482 102 103 131
2.562531421843639 0.39240568702106704 6.32502080779161 102 98 121
1.63530662460636 0.9783614373441775 5.085107827706641 122 131 170
1.3328317062217665 -0.10098039490341637 5.1416352142112745 122 104 126
1.9577444331204719 -1.586918556581959 5.937020771174676 73 77 114
1.7489374188151734 -1.1083709749185002 5.693326653596214 28 22 36
0.9323212643842415 -1.021914119584153 4.842386350231731 144 150 186
-0.1318472109417579 -0.5882004824107268 3.6736660141575697 90 80 107
1.5034970528154656 -0.23956550079883915 6.007752825744064 87 87 113
1.0683297454831508 -0.26968108602066854 4.885017104731252 177 183 217
-0.14813160887934743 0.913857535561512 3.3757975020353026 90 74 85
1.1708478739273986 -0.4832642424424891 5.022152797393066 157 170 204
2.3558458883162614 1.1125719248767607 5.657488441868339 112 125 157
1.041635678123328 0.23861677128178596 4.791002914207146 171 180 211
3.20157108812135 1.314173409445432 6.8042790506710125 60 67 95
1.269135454496992 0.6586757597388264 4.977032723516691 160 173 208
2.6536403534576847 1.1460980547982518 5.9373076343361095 114 127 159
1.904495225785364 0.0886896129639323 6.365573273341069 20 28 47
3.4477137795878106 -1.1763126359933813 7.425254572691957 120 128 164
0.30654143355456154 -1.1206104694002983 4.17371853406938 93 80 97
2.1120324680035014 0.7628950619583498 6.23974924064774 78 69 86
1.3026632628348098 0.021990975472297794 5.0556126406587945 66 73 101
2.5376636489208027 0.6573755719888137 6.287529760626335 38 39 59
1.6465043923861449 -0.7958173831203434 5.944300242201614 104 95 122
0.43549372294560423 -1.0505994055922012 4.312520954967561 108 91 110
2.7828079375376045 -0.26526342862210206 6.639996073684787 165 178 213
0.04013545624434112 -0.9534630319680746 3.933124969782885 118 103 126
2.560332133885165 -0.1369539672242573 6.413417621021513 37 33 47
1.943545795001553 -1.3818288830450498 5.901404978911304 96 111 140
0.6706480500580638 -0.21766375232325458 4.45762433119772 32 30 43
3.159921037039428 -1.1260958496777442 7.138021025213045 163 173 208
1.0872402910999623 0.9677971869284788 4.674935447990539 52 57 79
0.502935030330775 -1.1216853573442083 4.423084209535 151 155 184
0.9883513934489389 -1.3350844313352084 4.951324957539788 172 177 215
1.5279022122990045 -1.054657373367283 5.475095264523054 130 120 145
1.1234364013618177 -1.0830147364699578 5.057302394080133 136 145 178
1.3258538794381722 -0.8135608507652184 5.190343271759108 85 95 122
-0.058496763955381316 -1.1635493059300117 3.854953309806324 162 167 199
0.6233180260696627 1.000670810394283 4.22487141886255 111 122 150
1.8338442837739948 1.1184286812354338 4.785851835581292 104 118 147
0.2492188170372545 0.41480926149473873 4.85522243224274 58 55 76
-0.8064223434604993 -0.3578021452887341 3.8602870236525817 88 101 133
-1.0444693499692537 -1.0702589246145797 3.732037258862884 101 114 146
1.7771369048499714 -0.49223480960229726 6.305474081532645 29 26 33
1.307486666794172 -0.7956795882439783 5.187711510051218 44 50 66
2.5574192718050246 -0.01984268876606104 6.381664055933078 78 75 96
2.088903610549747 0.032884693344059475 6.378837647744641 32 29 40
1.9641859134357045 0.2851729842380459 6.366574496432991 89 84 106
2.112315706872416 -1.1268260129659309 6.064208061961061 63 50 76
3.0093409331523713 -1.5821308942947117 7.0553635844137155 154 165 195
1.0260334001585014 -0.717905698720273 4.89768585504643 157 166 199
2.331357624399676 -1.2696271630378495 6.311519335791615 170 176 212
0.7582019173330865 -0.865777344114032 4.64473748836524 169 174 206
-0.9034060615882891 0.28975157183242795 3.6687230471191543 111 100 130
0.48322593455537777 0.868836519728886 4.540753610913522 35 31 45
2.136588370432937 -1.330113579092728 6.11939521780144 59 58 89
2.908425520456776 -0.47984431386003756 6.797197335536308 161 172 204
-0.9280690255581455 0.8297052979083697 3.517490646916713 78 78 104
1.6203540361653188 0.982698658272297 5.065683825052723 121 133 173
0.2145172336532315 0.8320330414485058 4.3022235351510005 100 109 142
1.9477076098268202 -1.5076431111894952 5.9183454866418135 51 61 97
1.2020962383770921 0.27061713556915634 4.949010928291721 134 140 174
1.1742909647014044 -1.230027342732913 5.123431171763148 164 170 202
-0.5222667835274173 -0.03167992471840014 4.383330970945676 43 56 73
2.531914769724763 -0.12992354172490886 6.397940857551618 92 86 114
0.6686389050679655 -0.4688085503505361 4.498313540969343 119 109 133
1.8355941509502076 -1.1634871449026996 5.788578211005644 103 94 123
2.182214363631938 -1.2561979011582536 6.1289788862341235 82 84 105
0.7326317698197763 -0.37731317936474207 4.547022977796698 103 99 122
1.4889661373042236 -0.6832753633618741 5.79458631979456 137 132 162
0.8004247887058915 -0.3972915809922988 4.5806933581124865 122 129 158
2.131785831070312 1.0164602419611555 5.574789472829169 106 116 151
2.299826218989911 -0.6273097736264528 6.327737464314331 94 84 109
0.4922493903494374 -1.1461698151388664 4.40874539685909 172 173 203
1.8475377457120339 -1.323270495823562 5.823299936910163 63 59 82
2.471251660718559 1.1286181489414941 5.758500380381555 112 125 160
0.783582670939128 1.0439732210500496 4.358397188468052 81 86 108
0.905497024317425 0.8646555707332848 4.5049151653295585 74 79 101
1.872722673945823 -0.6476684037426571 6.333369670693055 41 30 36
1.7877587432627224 -1.262817456479278 5.707112636930037 82 96 123
2.4990534563251803 -0.1082730795509131 6.361383183331893 126 113 133
2.3804537679769378 0.011646889865668208 6.354019738549367 77 73 98
0.8199967922632213 -0.6414221740966862 4.6828450101449945 179 186 215
0.8780961907191064 0.7766265026750706 4.4953275706221 93 96 113
2.8132634022522898 -1.5892995451658547 6.833997624618077 154 165 197
-0.4025930615220164 -0.29607585655931884 4.544805831289685 29 28 42
1.9026482798138005 -1.5989267696473917 5.900324294522034 155 168 200
2.098548410995393 -1.1688601942207666 6.07085028385977 81 72 99
2.7854876045221197 0.5707719432358875 6.530732664577732 171 181 216
2.0840763129419426 -0.15615743446401004 6.391743386084471 36 34 48
2.080668029582095 1.1610598268526784 5.04892407678527 55 74 55
1.183251492196304 -0.42606961467785937 5.02384875177604 69 79 106
1.7756493277615877 -1.351537100388998 5.755947608031514 120 125 154
0.9092074034779105 -0.8938902835816528 4.801177631135784 169 178 211
1.5328965693417318 -1.309948020012039 5.510520107637981 185 194 233
2.9971991732906647 -0.7461218683140595 6.920311810586052 126 139 171
1.500999916322069 -0.2760345033740164 6.002024313158884 113 110 139
2.156931461102782 -1.0522848721839058 6.113600807943563 30 28 42
1.2832924649755584 -0.3856600074563178 5.065829230766631 82 86 111
0.05911776550187431 -0.41185843512432035 4.864770695625853 18 17 22
-0.9192558967660598 -0.36803692673851773 3.7570907566052543 104 108 137
0.01365038840736908 0.550436179641061 4.7708122488302 26 24 35
0.36888124547537643 -1.2324974297612812 4.304874738282534 69 56 82
-0.9341718299609613 0.7935767491913754 3.450779294098163 46 44 58
1.1536497602337648 -0.4638259918906029 5.0035623851856865 146 157 189
2.5329028133283065 0.8448339424800165 6.219940067546646 99 95 112
0.8336310344867692 0.8409190766866962 4.434344377267595 63 68 88
1.141474980162391 0.8594257346927578 4.735330603903382 43 50 68
3.1757347587605467 -0.12004934379441097 6.961859754144216 72 89 109
2.0434074173280474 -1.1096821141327702 6.002404490464049 38 34 48
2.962839510974218 1.10093651541745 6.58689002523608 72 79 105
2.330911493333222 0.8934390533782475 6.228741202585518 72 67 90
0.9890127778673616 -0.6543040473180903 4.85477323794036 164 167 198
0.2112499714340029 -0.21022080597197418 4.9211838449382235 58 57 65
-0.9795441588364046 0.293398745274039 3.432494065662299 162 188 237
2.225166944498328 -1.053610806904446 6.169770554047706 76 68 92
1.2844771031442728 0.8506252520254336 4.90191283895847 44 50 72
-0.8822097691756174 -0.009411403844378361 3.7354324429117702 128 134 168
1.1829706429333349 -0.6788168861555853 5.067063639341142 172 181 214
2.3370751814665263 -1.3801703330341666 6.330179775449891 158 158 194
0.43551456527146293 -1.0156455348444682 4.3000662498158535 104 93 107
2.3709513397544564 -1.1456343621379426 6.36570691389001 143 158 189
1.297538042460569 -1.0670621575338142 5.224566328967534 172 178 212
-0.7788128071233307 0.7232407190820621 3.639242129292719 52 49 68
2.6962298319968587 1.1617323296538276 5.833204815666202 115 121 155
2.8231912730421826 0.9528687573516335 6.400823557822819 97 103 117
1.1071061490772989 -0.5425449832750394 4.961902525990548 179 185 221
1.1115004140847509 -0.7796428970403344 4.994570247070706 172 183 215
0.9524038186586589 0.9553333801456807 4.545648137200331 55 59 71
-0.9891261065759245 0.9019528835422478 3.4045754165798257 41 39 60
1.8838015496265939 0.9729819964510302 6.256539821768487 67 67 95
3.324824536217451 -1.7568046115152522 7.431067091205802 87 88 109
1.0499284286981845 0.7826710488359184 4.667191766548031 62 66 75
2.892007192299639 -1.3094826099776253 6.879877067712758 170 182 222
2.9291714236777944 -1.3368750880431401 6.912288243669412 170 179 212
2.638738557469303 1.0740344489971287 6.073021344017907 108 124 160
3.0068619046374137 0.9077160825649571 6.729721911745284 127 112 131
2.486531009671771 -1.5586430717592663 6.501021209015971 168 178 213
0.4819950362621394 0.9844017643819503 4.1186254576151455 110 121 153
2.921082597174806 -0.12041730881489603 6.739686111904225 159 173 202
0.5742616921902333 -1.0725981632492705 4.48551631806986 142 146 181
-0.0682231090673719 -1.0455213561708216 3.826992198887193 148 159 189
0.8816556655794785 1.0415976806938636 4.464697604733188 74 76 99
0.3140395411503063 -1.1410427138292574 4.193417485451365 73 66 82
1.7805611132833021 -1.1241972197635828 5.740282510159298 104 95 124
2.9352006911061856 -1.3830037016108325 6.938848794079562 162 173 203
1.6884226427296545 -1.1125418513915937 5.632756020338342 124 122 146
0.5703850958792965 -0.44109357877647276 4.5606517231317145 34 32 43
1.277227285227161 -0.9868315422169337 5.192917086375189 169 182 216
1.7649402558168124 0.9819369280614675 5.3873090732412185 126 138 178
1.1579663521469834 0.9706350214890908 4.747963590123099 55 60 82
-0.05548817591022372 0.7343158470464513 4.3434891391447 70 79 110
0.2552167530757487 -1.2086193475619997 4.159453652944436 68 60 73
-0.22054843663343296 -0.6111225382544093 3.5602573016436785 62 53 70
-1.047935287318347 0.8280252786704708 3.372313924252558 77 83 107
1.5136023585995542 -0.25060080811359725 6.011936615529392 47 43 66
0.2513058972912348 0.91111112875976 4.170620407770992 97 106 135
2.253196536550166 1.1020225251898024 5.543689121481099 114 125 157
2.7970247733502585 -0.11325268206937707 6.635738907882155 137 147 182
3.1460971631423433 0.4119972712205339 6.918999181341268 82 87 116
3.3023904157362933 -0.6771131069508732 7.2206458644359275 167 182 215
0.030999697548469804 0.775270996626156 4.424797811235557 92 105 137
0.776230376205511 0.16121149591254813 4.531152465256609 102 94 118
-0.7953193874988741 -0.8964503086948323 3.936264131243689 49 58 87
1.1182360319416074 1.0497956730558575 4.699690940379354 86 93 122
2.5837979775649553 0.11810697011379548 6.385234786896644 110 105 127
2.235442565523468 -0.7474274974431181 6.276344113017379 104 111 139
2.551592568558639 0.8998933582996551 6.242020595509475 121 100 119
1.5960334379845058 -0.8666174591873345 5.768881604756355 113 108 131
1.1417495388847412 -1.0672617184446394 5.051303758134562 144 147 178
1.3668692341930355 0.8096107435631926 5.011462922469452 94 101 93
1.4923360271814157 -0.4097989140263458 6.058159107783057 55 53 67
2.5378765565428663 0.24064913864640333 6.342153033756278 35 31 45
-0.7915316436194085 -0.3389198214032903 3.8557316425002024 69 75 107
1.6833310020651304 -1.1305292949094559 5.633019764316805 65 56 87
0.46836869027097544 -1.0346459755630362 4.3288136693170935 84 83 89
-0.9035581789740875 0.525416257489646 3.4652866719007505 71 85 124
1.561445415364473 -0.2758034859087044 6.05026973805554 110 109 140
1.5766035373797647 -1.153279969948457 5.462508573849295 87 83 110
1.0148771836793158 0.8683633433033098 4.616427465451 89 91 112
1.677775772633613 -1.0301575665160765 5.681610097810947 126 118 141
1.8222665695572597 -0.4478053088826195 6.351064460878803 30 29 43
2.623920745694518 0.3483965141464886 6.35490975804652 117 107 132
2.3045735935730916 -0.1554292314983548 6.395542132033734 49 41 62
0.7540026147204001 0.7391489185711115 4.375504481316326 89 86 105
2.1733118085932133 1.165160514283757 5.14837868953899 83 97 123
-1.0472098216216572 0.3522734411392714 3.3713900054763997 92 95 126
1.5809490647094875 -0.8405017936486571 5.752637379135055 125 121 146
1.9875364898467829 -1.530811193629308 5.967868319246671 143 154 186
2.0068180496309314 1.003816467519238 5.44849436372893 103 113 148
1.3330967278149148 0.2295834809932432 5.096352732425439 124 109 132
1.9442577315330953 -0.41969960711371684 6.408013540844654 39 32 48
2.2034656072406915 -1.0554050103801913 6.135062380850296 102 92 117
0.3301917156530987 0.9665416937034651 4.096706901392588 95 105 132
0.8483326799352089 0.9497278796791976 4.437428996801141 51 58 77
0.15755716265178812 -1.000660253491109 4.0554277532067315 85 67 79
0.9205080838292977 -0.3134413750436357 4.73509885746492 159 164 196
1.6650136613190711 0.9878586317905897 5.097984721792224 119 132 164
1.412744086553473 -0.7868231612150025 5.313177567535631 81 66 97
-1.011329889080693 0.25537033841056644 3.5500738694334095 135 148 182
2.6854623027267004 -1.1763932988231685 6.659338728715353 136 150 185
2.7151523845073084 0.6023953437276137 6.405799818145485 167 177 212
2.1653239384584575 -1.5671952643877565 6.159518583109271 39 38 54
2.6341422485664063 -1.3640148599540387 6.617218594866525 126 125 169
-0.7744015758034352 0.08057437368132064 3.7728342740324834 69 80 108
0.44640299337450023 0.9786400598899008 4.206740825716779 87 97 122
1.9141214224776335 -1.5440816926887817 5.9204302909400175 150 159 190
2.062030528871944 -1.3873978378161782 6.038683218025062 45 46 77
2.9539447433860215 -1.3881820995942018 6.944828018130275 135 144 183
2.5370452651047612 0.9121621721483738 6.203571754867559 130 137 155
1.1245225590744654 -1.2171191059510786 5.066644874598401 174 178 213
1.7203054101532889 -1.111803757416403 5.669174117715021 68 57 87
1.6186137902576383 1.0244078049022955 4.897945789901649 74 83 116
2.328878719730243 1.1499702935274019 5.460304738466435 105 116 146
3.1636199252614343 1.1379707205287959 6.794039363183462 41 47 71
2.863350748706224 1.2643161662535536 5.839063655540052 60 75 82
1.9064990198941805 0.0003767862936505969 6.40412354795317 86 83 110
-0.8710413084986743 0.6532684901315339 3.595432316301559 74 73 87
2.755933355432889 -0.7722473991522149 6.670667715861251 148 163 194
2.256355939409832 -0.9981796421325239 6.20209398133854 67 57 82
1.1860513276886309 -0.5065832894790886 5.038448686623806 154 166 204
1.9665930584031124 0.3657526271964466 6.3330100083715 85 77 101
1.91049089577509 -1.5426470063220559 5.920249003778407 149 162 194
0.5276787836936998 -0.14412125089853967 4.620650737485211 66 69 88
0.7890119551052324 -0.3129440865563565 4.556691810617716 81 90 99
2.5085654550556815 -0.15320861421527038 6.40301690710362 56 48 63
-1.089206449661284 -0.5958602387085613 3.691291100278897 114 127 162
-0.15303548948117707 -0.545452232059836 3.668817659493649 116 106 130
2.2139774616919605 -1.2551088624789428 6.1296327655169875 99 106 132
0.762384037994328 -0.8837513038218728 4.649135412884948 166 167 197
0.5225329069900946 -0.17451288916992275 4.6033902532252 44 40 55
3.150821406092959 -0.3459078221990256 7.028384466311288 163 176 211
1.922951240432166 -1.1659229667294049 5.889039425203471 108 97 127
-1.0552102388914781 0.8152341390030914 3.3605400627769115 57 54 75
-0.055368549077134704 -1.1752405996558324 3.8565724607670404 145 158 193
2.6883603461091914 1.0754929693754471 6.253143421579766 65 76 104
1.277298486509377 -0.7458444328160284 5.171703638788067 81 88 117
2.7744449540933616 0.9345900906495801 6.481698626152303 160 163 194
2.875214193494344 1.2529221633548575 5.861646929795382 103 117 143
0.8765796293486118 -0.6835227675430994 4.734960123900109 171 181 217
0.002866068372604953 0.7466173102644476 4.405148370722432 75 86 118
2.170711421469326 -1.2095194841323365 6.105955226673665 109 119 146
1.2927754426739768 -0.43979086463254535 5.0800161359391485 66 67 97
2.5321947809269427 0.04780517153920093 6.3735222147889194 83 72 89
0.34771417932735765 -1.2946063972011626 4.267753634616214 138 125 143
1.7849284963061365 -0.2640644865078329 6.275311759509597 96 86 113
0.9093886591258579 -1.0387004645554252 4.817040512401551 164 170 202
-0.7547309069860921 0.0890346057394681 3.8225288994171405 82 88 120
2.373771643185997 -0.6868996439348172 6.330165032710358 82 72 99
1.773128157443718 -1.156420485471515 5.727973112614436 115 101 134
2.9917808438115685 0.8204015055736524 6.6960193211609695 132 120 142
0.07298336898626302 -0.30717981981159953 4.874354486508576 24 22 27
0.9134000273395084 -0.15992742721214823 4.7022431485871525 144 150 186
1.2151832756931216 -0.94006761189277 5.131351259844364 193 206 240
0.1629379593894096 0.890537876665096 4.084189075542014 120 127 155
0.27791747341644446 0.13261657708553118 4.903199361788544 73 78 98
3.3824506014575406 -0.9877115390791789 7.319753583847674 126 131 171
2.783764561543474 -0.6177208602801529 6.685876278206475 148 154 190
2.1912884849200625 -1.0251980454076253 6.111432135189172 97 92 115
1.173672075909941 -0.14144819660662042 4.9716506431231995 160 164 199
0.7941132810996314 -0.7962088499788805 4.676640249346104 155 158 191
2.8814708134501053 1.2367462309284747 6.029935393990281 100 106 140
0.7816553966608197 -0.3013496888066943 4.544726322535861 59 55 70
0.7384822859453476 0.9767343458134746 4.318906893481657 131 125 139
1.988886417386767 -1.3291576249879775 5.933285845601492 168 179 207
1.334327250260296 0.2719196330842492 5.084905182837407 87 73 98
0.8337676066402647 -1.0906614346708814 4.760132768295652 144 148 183
1.6958604547484388 0.6266861927987876 6.093067445650091 45 67 106
2.587184590404835 0.17834112359354315 6.378530167328321 76 61 80
1.0465827380848605 0.8156289661246364 4.661166582935981 78 83 103
3.067433636624674 -1.6393555083774125 7.0775193089648 180 194 233
-0.7457707108947415 -1.139443512847732 4.047564216860624 59 66 94
2.8158755974100074 -0.9645932826817141 6.757133994264822 140 146 180
0.7169432241928734 0.9396171553234707 4.316142519915938 83 74 91
-0.08714489762998173 -1.0269825916886552 3.803681610108167 154 165 195
0.08612971625167383 -0.006362439073319764 4.872926001559585 20 18 29
1.031885485424358 -0.1252355989717173 4.833906474247204 180 186 220
2.433530381655877 -0.6285543737995793 6.3652656872068905 44 42 56
1.687064095078994 -0.2890715919840889 6.188824753110316 111 115 142
2.325458561365341 0.4628856242723419 6.3267156625751735 81 72 93
2.5769569658715636 0.14321007507747338 6.387255044076302 101 91 118
1.375848600517635 -1.3805805162959102 5.3408550113788875 158 164 198
2.2143027600170853 -1.0164377412772423 6.169355922556584 32 29 46
0.6150986628428242 -1.3514102802612724 4.574040917335317 176 177 207
-0.7917300627053361 -0.3398519353348583 3.8557121190358092 61 67 99
1.8902563769478018 -0.2204697285011804 6.386698990822179 87 78 109
-1.0582593886352494 -1.062460955847039 3.726999329781728 83 99 132
2.9774524853500566 -1.0659060849669426 6.940800921083035 139 152 184
2.5491432012091044 1.1341058191655764 5.857319800390966 120 135 168
0.3578889661115992 -1.1649690408941797 4.259225643317009 126 107 127
1.405322161085756 -0.8064509898962812 5.305263363134794 106 95 125
0.16739004164688678 0.9098755895599245 4.074294559897123 110 123 155
2.7921297754627563 -1.0898504051252922 6.7454498664167675 161 175 204
2.0476720244753106 -1.1376058334345844 6.011742005584891 113 104 131
-1.0018166432981748 -0.36876539467269387 3.646335101479112 85 95 131
2.527631108558923 -1.6119055835987472 6.555815309408719 132 145 180
-0.9065828641357683 0.7924550451561337 3.5285982591409883 66 64 88
1.828783646338815 -1.4094883631721724 5.811405372315115 111 126 149
1.7754033171969674 -1.426971267429939 5.770887808255032 144 153 182
1.39727580114932 -0.8812041894111969 5.266241864039845 72 78 102
2.060750280448681 -1.0807639483115152 6.02634017891714 44 40 55
1.8019845964066552 -1.3323984529408277 5.773278923638283 113 118 147
0.2578185086642113 -1.1675972428143584 4.150888505800865 70 68 79
1.9589395197058137 -1.1310611566362572 5.9173300929052735 111 100 130
0.12034998582635165 0.8969434446439958 3.8839130116899137 108 119 149
0.8305588804894578 -0.5292394680486985 4.671802831535217 161 167 199
3.1407185696469 0.437805051111112 6.913081293618131 79 82 113
1.8718014283917366 -1.530067382139298 5.877317285627189 155 160 192
1.9551628147036721 1.0586885991442334 5.23463303858935 115 128 160
1.5960875869360602 -0.8859543267440063 5.786948298859789 64 60 83
1.264088065332256 1.024445656832086 4.86772958686771 78 98 131
2.8055211979637513 1.017564142118081 6.442389084987315 59 68 85
0.31135583365257363 -1.1027876951437596 4.183270102509576 136 114 127
0.35168211249902886 -1.025621159851365 4.2134782553236025 90 73 92
-0.8581092591456334 0.1724432213237673 3.735676289733088 108 104 137
0.9758617586003088 -0.8515493856546795 4.869948312462416 179 191 231
2.0829996934221944 -1.4295072057475142 6.062487646902014 145 160 189
3.3483871293332976 -0.4724020395221138 7.201131575247568 70 84 111
2.0780618865027782 1.1189071761825304 5.1957879651421015 92 105 137
0.04865555373166065 -1.1662946598617532 3.966757853933829 150 158 194
2.1309668463412152 -1.261451029377267 6.110117602350238 141 148 177
2.5119052611829145 0.9411774881878481 6.196753021626204 26 29 38
1.3027861148917697 -0.2490838163431939 5.090933856090514 73 78 108
0.8062600438204216 -1.2546079957755885 4.754742227060102 167 173 207
1.9266291022967772 0.7331216162199815 6.301462374997522 44 50 66
0.37993263762177953 0.4039288801516876 4.747687862461783 84 90 114
3.170803725718463 1.1870408554922494 6.790562445442708 66 63 90
3.167076064910433 -0.263737172712449 7.014626950816799 48 54 80
0.5391299877866434 -1.1773779755177698 4.473111186799945 170 176 208
1.4906180374880913 -0.4554707670012675 6.084068625426417 53 51 64
2.5901632403897623 0.48521976428460367 6.336819728505198 125 120 143
2.6581838929677235 -0.258769883329471 6.464237431220759 34 32 54
-0.7355841668733085 0.738388386829056 3.6339432148110355 25 24 42
0.8957883929043584 -1.2343262535669597 4.839730648335253 165 170 208
2.0026761770987327 -1.149156424438909 5.954072463567412 78 69 96
2.533289925841663 -0.04334283592798214 6.388746095964942 71 64 82
0.8553929599618156 0.8919004063481197 4.448388080254902 47 49 64
1.8176683618594796 -0.2438323261122241 6.3119543665705 115 105 132
1.4335767676117726 -0.7952823210408386 5.337281793889928 46 39 57
0.3869700384410491 0.5042978480818501 4.719721768934491 84 91 119
0.3663120063289539 -1.0962355880085028 4.2768941116526165 109 84 103
0.7100701072637028 -1.1526075029460816 4.634530829804662 167 171 200
0.7639403052885001 0.7579287922472908 4.379355932701741 90 97 113
1.118699431344828 -0.2881838447727748 4.93525516688079 146 155 188
0.4230707209448898 -1.1045422503865852 4.299281435271964 71 67 84
2.6926309216918827 0.7387357929246656 6.399901874795267 114 114 138
0.7954765750616856 0.9400777146827657 4.380668863733932 79 81 102
1.5134997030479254 -0.7569442453071392 5.6761436832034535 123 113 138
-0.9924339507481067 0.6776913490913793 3.4543155159331227 73 70 87
0.2576111604755739 0.946004943131922 4.016861238815487 120 125 147
2.313761834304018 1.1186374624055266 5.60478351855682 87 93 127
1.2939222198065514 -1.2174326930742982 5.241416366175917 170 176 210
1.6963846870663484 -0.4680719924033508 6.21917865543349 84 83 114
2.6186542516419204 -0.6008975665661314 6.4567948229943966 77 87 112
0.18290690548141975 0.8927954991093224 4.103230568679694 129 135 159
0.7079549904183781 1.0383770557178862 4.262152300428604 49 73 57
1.6663624312128704 0.3217518187374757 6.093306806762153 47 70 104
1.3580099989912964 -0.7871127156015598 5.184603126123154 70 80 105
-0.04396740369242357 -1.1638701411053762 3.892686037458467 163 169 201
1.669249812717186 -0.013250170205152467 6.138946818104153 45 65 100
1.960394059279277 -1.1039653044923445 5.9256826965036336 92 84 105
1.7658793100735397 -0.2675322724865583 6.265241675750404 100 89 119
0.18480370617045302 0.7895253783637238 4.437004178719455 92 106 135
0.23232950008769904 0.8295559173298072 4.324574341294496 96 109 143
1.0126594312770203 1.0625839219294988 4.598415893905763 105 107 130
0.7967344008244471 -0.277136668332127 4.561441323168273 30 35 38
1.6687991550378778 0.6260097057548984 6.050214644539674 44 66 105
1.9151719012531272 -1.461084215638031 5.9242144642974734 139 152 184
2.4520241888298244 -1.373865994170378 6.4523924776939285 164 168 203
0.1446399962028623 0.9249077873136615 3.839664257208521 134 139 169
2.423276592656369 -1.536195210118468 6.443662959590922 172 182 217
1.1160025554369915 -1.0349308408935154 5.0417510050337615 171 182 214
3.405023687641439 -0.8096509604052233 7.341486203418992 151 164 196
-0.9229639655527976 0.6585557912938718 3.5136923187364926 49 46 63
2.73862424261408 -1.0840299405636145 6.710207081235344 142 144 183
2.887018065630121 1.211465873225754 6.01427474374087 111 124 159
2.0373055199847 -1.1363243539377943 6.000983513088781 101 88 116
0.7935651963389643 0.9055047036888129 4.392164432207337 54 60 82
1.9563659913091425 -1.564077534342265 5.934940682755682 76 84 121
1.1601917951574972 -0.4765116727777304 5.0135090280956085 137 145 181
0.4432629597251013 -0.8589192034646724 4.349279614239799 39 36 45
2.2874198311529548 -1.0044802924142164 6.231661283010066 61 58 85
2.662406926828863 0.5988803887080346 6.376522808765404 241 244 253
-0.9464354002950746 0.35946167686165864 3.496601860494649 106 131 187
2.2406709237000975 -0.10266627542480841 6.296826020327104 31 24 32
2.0728622284234426 0.2595525030852564 6.347490258296024 104 105 126
-0.807231117072853 -0.9117730568583522 3.9333221663270286 80 86 118
2.7037607083820006 0.11730879279271011 6.510099546906306 175 189 228
1.254968430025916 -1.3787353057747755 5.221871373410047 182 187 229
2.58530939760864 0.40266296343340857 6.337603527957219 119 110 131
0.20207835154690734 0.7907523358619344 4.532570796061174 39 44 66
1.771912568883822 -1.1578860026604942 5.72656905900461 114 103 135
2.8249228638758592 0.9495174991023779 6.387335210556723 100 102 114
0.19054100866480625 0.9042922712773341 4.1148474423112855 79 85 111
-0.7474777563436354 -0.5516140775234908 3.954231814053619 66 68 91
0.30515984530474227 -1.1207918513515402 4.1814597538761475 77 60 78
0.7819698829039088 -0.8489852260483196 4.659377950357708 171 175 204
2.8370845387987536 -1.49689727763622 6.8488732678737305 166 177 209
3.347957070600873 -1.4825295867316177 7.482757879693568 101 105 134
1.4906572039563595 -0.28727020906280637 5.989071824457296 83 82 116
-0.8833555305775871 0.09160528411955658 3.725481807039009 111 124 158
0.32704464792794513 0.9247208115367904 4.249569860496062 94 101 129
-1.010463436928976 0.7168813059985586 3.4424562798128457 71 70 88
0.8477017835658419 -0.8280553839532803 4.733070544530486 172 177 206
0.41003433337653816 1.006932261838466 4.015491009810581 91 103 119
2.2035389981287286 -1.1604217209035295 6.123602841118606 31 33 46
1.9832861674332773 -1.1600919750412126 5.951948113513475 113 98 127
2.4421087995522117 -0.35176261029440137 6.396062747408643 53 45 60
3.2241265081848502 -0.5080400790697058 7.123872691401003 170 184 221
-0.9876645505287059 0.6524436461627874 3.478426609048811 68 72 84
0.6634887474262523 -1.3720016324654032 4.623971015372722 171 175 210
2.5331908952372273 0.21255598465499023 6.343797223835295 75 71 86
0.8898749867082316 0.9716166647907735 4.471279923262185 39 47 68
1.8914509033374776 -1.1511884519214044 5.8417196968179885 69 61 85
2.0191296839326007 -1.1158576941115679 5.972639136357561 101 95 123
1.5283612470880665 -0.7709374171483232 5.699801315668469 121 113 136
1.696657379297769 0.6707553297993685 6.08206628460746 45 64 106
1.9834468124746423 -1.0998948903623305 5.970307753625004 71 70 86
1.0987527537558668 0.08925209196842457 4.866532147881725 133 142 181
2.323333118743267 -1.2939789709792668 6.306971658272818 168 177 210
2.0387769434399248 -1.4656851478111654 6.031555876508342 140 146 180
2.3392045468668945 0.7799690384425678 6.2627018629886 34 26 37
1.5056920466187003 -0.9765685041503464 5.4134334576984475 141 121 148
2.472373212137091 0.04870759392022706 6.34672300521527 97 83 108
-0.992069690309233 0.33640222069842024 3.3989612424203033 59 55 80
0.7150564170231264 -0.7782140941568009 4.5902453836277495 151 156 188
3.5357328288476366 -1.6846889408656367 7.685696576867867 25 28 43
1.68566653648949 0.6134226509197809 6.081185393189498 29 49 76
1.6051165505361382 1.05163875320666 4.732262823203682 112 126 163
2.6877667294155994 0.36466625001484415 6.437244674327909 104 94 119
1.2006546923279418 -0.9765469695422262 5.1123446800491505 179 191 229
-1.0405388495488423 0.7848954448278145 3.386077219169939 83 79 104
-1.09681269528016 0.25385912776964337 3.4545914276627254 132 143 175
1.6409812903448964 -0.3059340437096484 6.158751787612397 104 101 128
0.8628433705155435 0.6910538815042101 4.504859138331747 105 102 93
-0.17298481046258665 -1.0325832343937416 3.708773492601561 146 150 179
3.157041940510754 0.8895814850589854 6.8459470412433125 113 108 140
2.0307022401042443 -1.3503153076517511 5.999154806408534 141 149 185
1.499574127386993 0.0006946540437662984 5.933986106808147 52 70 106
1.781845533975296 -1.4421188591165908 5.783048553964951 68 63 95
0.7828406345003283 0.8251006487006942 4.391037310997577 88 94 106
2.052967676870082 -1.1523253029440854 6.0125158489486425 77 66 96
0.8773426627751185 1.0588400343770648 4.452967603208619 76 87 105
1.3990516483298137 -0.9669055497377312 5.277560003260588 86 90 117
1.8492131970048307 -1.4191562400730162 5.813548462142498 158 174 199
1.6042193271292753 -0.9295356582033899 5.653764851452845 120 113 144
1.7841906011322362 -1.4339508664500278 5.79583085228511 109 109 135
0.24160202653503038 -1.113246089593528 4.123368467355549 98 76 89
3.154567561407036 0.06553995765741198 6.96391931639282 21 21 29
2.2323340150729503 1.1460808568122445 5.36634317710162 106 111 143
1.2695778391388985 -0.805367825275496 5.166115080140383 107 118 150
2.6347498815262993 0.45963809178613013 6.388307677744824 132 119 145
-0.21259297288895276 -0.40418214943156044 3.5344339012149257 96 97 117
-1.116780474325305 -0.4001518712422714 3.562300944522842 65 61 84
2.579617399164993 0.7419296266143566 6.292878181905152 28 26 39
0.9754057348177979 0.41091398887165853 4.696522038231653 162 173 203
0.7505068345592791 -1.2989077445951582 4.700907963785338 169 173 210
0.8615549832587377 0.9591393653597923 4.450530533122383 55 60 79
2.096551028894478 -1.238887401607282 6.033251063469745 135 146 178
1.654032870273712 -0.5332531374314833 6.23837130965841 48 47 63
2.7434498717528384 1.0427422799209674 6.3808783470784345 76 86 111
-0.1604762763992584 -1.0569869373645235 3.730404256066894 157 162 191
1.7600444735017244 -1.0400690896166047 5.873359635538816 29 28 36
1.065942172232845 1.0614530178537809 4.631383043334571 71 66 88
1.298780193649891 0.8991093916941642 4.903066136825288 72 82 109
0.36391090172747004 0.956101146150206 3.982780901587897 136 152 186
2.9655350879987816 -1.0949768850277193 6.9290670928730345 145 151 187
0.9198407757065572 -1.1233863545391642 4.846100977631764 166 170 199
1.309259633245098 0.9969786951594699 4.8951883080989855 34 41 57
0.03923579376025778 -0.22563958459423375 4.8228094942158934 34 33 39
1.002887234535418 0.8693037579125157 4.595460839894016 77 82 104
0.8392719396356783 0.2545717940171114 4.570979298334876 156 162 196
-0.13146180706192784 0.8663970082273789 3.7852082870054686 107 112 142
1.247154663471568 0.2788154622600896 5.0055025212471635 132 145 180
3.1673087376498965 1.1014185040206828 6.804989233190804 97 98 128
1.3256747916604927 -0.5177308831401213 5.155088834451579 124 114 139
2.5581553308273217 -1.5853686906115365 6.570965529281857 161 174 209
0.44231960407307797 -1.2336608992835787 4.331596176798209 133 114 134
1.6288404479028318 -0.9168959022466394 5.700059323679409 103 95 118
2.3769181162703696 -1.6408197113896308 6.396081670627167 156 169 201
0.8142250569696649 -1.066818303849739 4.746243624339769 166 170 205
1.6023892341588089 -1.3447238641985446 5.541047203488676 182 189 231
0.766472436013832 -1.2578608680760406 4.706680612867474 176 182 218
1.939767249620968 1.0923812407228746 5.073091938332787 91 108 138
1.1677195748125313 -0.15484890809751006 4.968586737510172 155 164 195
1.9357810239500284 -1.1975634239096684 5.888293743923695 107 98 125
2.5602959369264267 0.8935846716200239 6.241793604076107 128 116 136
-0.3395775006476507 -0.41355700132078976 4.589719170866647 44 46 59
-0.060447801361480286 -1.0464303308697747 3.8401825711866393 105 119 146
-0.21946611812341285 -0.483731500972614 3.5444830353385646 111 94 113
0.5548724175895156 1.0031752201030582 4.176726226881964 97 111 140
1.2432173857098932 -0.37924528434486415 5.018209860831163 73 77 102
-0.15736771363608787 0.45929540421923454 4.687168939295319 22 33 51
1.5526444679473266 0.9852007371511596 4.841672378653312 105 122 150
1.1755908985647023 -0.9591078057023085 5.102679667290824 181 188 230
-0.0981681362950511 -0.7545421206947369 3.7583940418170703 78 65 91
0.6208843815244297 1.0008616061407198 4.331995237985931 43 49 75
1.6889538834005422 -0.21922031094984823 6.191494830424453 86 82 105
1.0242462292604946 -0.6960361227867694 4.905632185195029 158 169 201
1.4475400622186028 -1.3849574636937119 5.411407452047408 180 188 227
-1.1943089395060815 -0.8376607136927352 3.617271611223203 48 42 56
0.010201104918742097 0.8772838416983673 3.927937129461766 118 123 153
0.8487434006287525 1.045579433446314 4.426582805535659 76 87 109
0.7436181385133704 -0.11270722025794841 4.492605436110352 102 93 110
0.9116774008981655 1.0019363585478702 4.490324573959094 90 95 117
1.5422573225526444 -0.35285246062312536 6.051566460796954 105 102 131
-0.1805492611485703 0.7417238636198256 4.208816909517464 115 122 148
1.175867930145276 0.8609673638008258 4.7746075463004995 49 51 72
1.0675608637948306 -0.4315551699182113 4.888573485257772 175 183 219
0.3271959390818363 0.9251969076351307 4.249501385864697 91 98 127
-0.27194119086244906 0.689101064426746 4.121888939850908 101 108 137
2.5083809980400456 1.1081961836723704 5.937674709014403 111 115 150
2.871807747052014 -1.0326927261487775 6.807379248273988 161 171 206
0.5858234046107993 -0.4631485451842157 4.547598172423477 61 57 71
0.26651478740709333 0.8131371879237952 4.766791841979067 51 56 76
2.8515101216070025 -0.9704184600381754 6.815190587570704 143 152 185
0.358988517427762 -1.2224142407636207 4.279604397374539 141 122 141
2.1691817419497217 1.1742721886598886 5.130862958057542 61 77 92
-0.13450523773803152 0.8206343872858669 3.9386221520260856 120 129 158
1.1423926422833595 0.734101610859932 4.797512086073693 96 97 91
1.4881493088410405 -1.1700838019213302 5.426418314357141 71 84 116
3.3839349921240918 -0.9862962389814922 7.3248944217861025 126 131 171
0.31563514161725886 0.5359033742466253 4.797008193507933 53 54 74
3.2141192253445463 -1.3094649061124561 7.16969040834315 80 83 92
2.561495832768799 0.060077065316556884 6.379355181676994 100 87 113
1.6195373341114374 -0.1930577911009275 6.114557151171324 74 78 103
1.1027176974613666 -1.443788201729908 5.060024229746881 180 191 236
1.9438201553865537 1.0707716184882092 5.22983692890227 98 104 138
0.5943332309053182 -1.3431181479362586 4.562179936569792 157 154 185
2.7095755109869804 0.6076053129572753 6.403447545152195 168 179 211
2.794980299890648 -1.2492746838313549 6.775522465980449 171 184 218
1.3232608155684729 0.9035232877334386 4.927021321026617 70 79 108
2.844043957408631 0.994520648181608 6.38450540127706 77 99 123
-0.218337207402509 -0.8698671363622063 3.5975246587475054 106 98 113
1.193353799663159 0.4240704050428872 4.92077882176228 140 145 175
3.0886315777521802 0.6251611343031995 6.811988060492952 123 108 129
0.06523481334548699 0.9543560924605938 3.6646009216636277 135 146 174
0.7824994674179256 0.7627757543398268 4.396133735680336 98 101 110
1.4206202217631008 -0.2417570101040211 5.369594619537004 43 33 42
1.4545458854969877 -0.8749867469479453 5.351514410356073 116 106 131
-0.1863279407734981 -0.5928514998166646 3.6053550226289195 113 104 125
1.6798392787518794 0.07420754887253775 6.148435875372524 35 49 75
1.3244628427687577 -1.1133808775228087 5.254924345895446 152 158 194
1.6603347655659582 -1.1000967166897426 5.605459954546865 114 106 130
1.4294481349038353 -1.0651310003247934 5.361038953751688 78 89 117
1.5898364793191244 -0.23398673450791102 6.079439025389616 78 80 105
1.8348177291608423 0.9799887749741215 5.27920834764794 100 110 146
