ply
format ascii 1.0
element vertex 709
property float x
property float y
property float z
property uchar red
property uchar green
property uchar blue
end_header
0.8953710054551995 -1.334123158920544 4.978644261693697 111 86 105
1.2565906249901326 0.07634265054693971 4.460164882822882 128 106 127
0.2720216281020713 -1.2573705529538923 5.601507426792359 130 100 112
-0.1975912827765402 0.8202589290301647 5.090081747870612 88 53 59
-0.9493627697878019 1.2774203019819086 4.577530695691938 104 66 79
0.675455938973655 0.24193468235511334 5.035007692583537 103 75 87
-3.7282582257425068 -2.056232370219599 8.86662262864091 123 145 202
-0.1137193204770274 0.7235162217466156 5.118396386401147 59 28 34
0.5738821751692468 -0.04382000452260892 5.16742342116434 140 118 139
-0.45470277019592753 -2.1763738681793883 6.312600242596971 50 34 34
0.13986740466122854 -1.9515062525096611 5.811110663436783 118 102 129
1.1295252448015727 0.9610994554354773 4.501670857193346 90 70 81
1.2106621164216782 0.4570741688469746 4.470224916623422 132 105 120
0.6136704814052667 1.3967545217918602 4.8693220810730855 114 96 110
0.8092407641930562 0.42323760205611266 4.8808495944321875 129 106 126
0.46679648167846344 -1.217155969652755 5.4011023414397075 106 83 101
0.8584411544312526 -0.5960181967597752 4.939657121896302 72 55 71
-0.7257901592373087 0.36316730833310346 5.844047525266546 57 42 39
0.48145390060135596 -1.8384354339214928 5.4504251899887155 104 79 100
0.8744758293853535 -1.635290693096281 5.0371212522026845 107 93 110
-0.40944217366253116 1.2902284812175717 4.817979585589747 124 82 96
0.726257215102987 -1.3815469684452568 5.156297797822119 89 69 81
1.2568070818460062 -0.42325655809669366 4.518808026059364 122 94 109
-1.6925967198450718 -0.32764244285408034 7.514426562902104 61 47 64
-0.11114790835671375 0.9564517690784874 5.073252996496977 88 53 59
0.5697863384710501 -0.3473800874078404 5.199929106488738 127 98 118
1.2904914001674381 -0.07465421502598878 4.455867639452748 93 68 87
-1.2614186590630232 -1.8205659658471038 7.237399244510432 114 97 115
0.8740802696321945 0.9855991667855734 4.75884423878732 124 104 116
-1.256635805612488 0.5300159530456717 6.738650440065298 53 22 30
0.8191299435895096 -1.7378707678993983 5.128225573365988 117 103 129
0.8189992778917001 0.31094735420881375 4.887165353095745 132 111 130
1.2836447742280623 0.05651183130909305 4.433978267549493 95 71 93
1.2015541287046265 -1.6610479342771838 4.701082829475467 88 63 92
1.0083137712196575 -1.4116508528744918 4.87824275809942 61 47 64
1.1838864712562882 0.5547738460123425 4.48692146805454 125 101 115
0.15694228626317422 0.34013563403947855 5.167997622732026 62 38 52
0.3615637022756037 -1.4733970681685862 5.532727031148103 131 112 132
0.612792837185234 -1.378731405278256 5.290540925163728 72 54 68
-1.1945433626520834 1.1870243788892467 4.633932747391478 134 81 99
0.6700383380920888 -0.15643508792350697 5.074615273318606 109 88 105
1.0900570393809257 1.226793945408611 4.395363803735898 118 110 133
-0.5320315487011658 0.931230318925348 4.83398770536178 121 73 89
0.45457989523462733 -1.7116330356816711 5.471831028037233 116 102 127
-1.171705224428562 -0.43241686747355823 6.65129661987284 110 61 67
-0.8109364689985609 -1.4455062355259336 6.060738697941352 43 20 28
0.7482178289024748 -1.482702979534869 5.141478146041914 100 78 99
-0.1445751134921856 1.2588139060535446 5.089655835858166 140 95 116
1.2296458035461204 -0.23058191787674273 4.518934898274968 124 103 122
-1.106891244222061 1.1262199657776222 4.645234681594478 109 75 100
-1.6750686217929731 1.3228521329666507 5.047300017809419 116 75 91
-1.9968124373636207 0.6303424542652677 7.708519701046336 66 53 63
-1.2140472648609402 0.13755279953439048 6.752196173033879 94 63 79
0.8806611198109414 -1.3857258519338314 4.999673680103383 127 108 130
-3.8560006698739877 -2.319767948524547 8.848073540030871 132 162 214
0.42254328639806904 -1.2318142690547278 5.454022301789193 118 100 122
0.8929847070157193 0.35673720863689273 4.7916672923573325 123 95 110
0.9499529773315826 0.3994547624578167 4.72928345337105 140 116 129
-0.7696516617134942 0.9423016526583529 4.660813012866834 110 80 104
0.8880180983530769 0.16656823343966273 4.831726288742063 119 98 117
1.286803719408599 1.1363061472617204 4.309542220301622 113 109 136
-0.0020537669803148404 0.5782717030076011 5.13240257917361 137 106 124
-0.14296604700045298 -0.916768773555287 5.469167263918599 99 48 53
1.262482255200013 0.761818982842141 4.3791633075669285 106 74 85
-1.3818837172705147 0.1674766165846001 6.802854690868704 110 61 67
0.8226423094295545 0.6088330865022982 4.847455436525723 67 50 58
0.9085750920169233 -0.23326350196679027 4.869928717983218 119 98 117
-3.3429798982156167 -1.866201592541552 8.973936106419456 164 175 221
1.0017688878240443 0.6757048335602208 4.660760382987955 127 105 118
0.30470055706250626 -1.0463989428263867 5.55752092446437 86 63 79
1.170985276829436 -1.2335406686331782 4.688977845982419 121 97 119
0.7483172042681923 0.6411293106374867 4.938349209430033 77 67 91
-1.6245822232393912 -0.32324894178012376 7.44207317741235 121 98 116
0.5756617078480112 1.3749712013443858 4.357453656637283 121 132 150
-2.201113128012154 -0.05692658872014661 7.97062313393958 122 107 128
1.0912897132037196 -1.2664552662513788 4.785524137313156 120 103 122
0.03668132468098336 -1.4779121836260478 5.869589930654943 131 107 129
0.4471914839166005 -1.2496945738088392 5.432935368577033 79 55 68
-0.0800846598295203 0.6388587397057851 5.103912369221104 62 33 37
0.5825700445823522 -0.01939403390767102 5.158538391591668 132 104 127
-1.949487018795883 0.6222846659409269 7.659545059234912 70 58 70
0.7955051949287474 0.049687665195539965 4.940643801345049 126 99 114
-2.1638122563738027 0.08928510296041835 7.924258371885752 67 57 81
0.8521019747859075 -1.378265654916321 5.030726380367303 130 107 127
0.5418532736836886 -0.3926456806798417 5.231414576998764 110 78 89
0.7333335832643423 0.9852723559804527 4.905869981191294 97 78 100
-0.6811065049558407 0.8211506178113377 4.6378318617381575 57 31 32
1.1123434356729849 1.078908481291861 4.501539610266878 108 78 90
-1.8499615869388402 0.9966406673211949 5.320473155385617 68 40 54
0.7829755024198105 -0.13635343101297223 4.976628435936022 80 62 78
1.1905262402185814 1.096451794657631 4.431916139710022 56 48 63
0.7367013978652178 0.13797764135881682 4.999333676603525 121 97 113
0.497426909140834 0.49856468384774116 5.2045096070956225 127 117 144
0.6955483626526385 0.31057317012316643 5.035402366776647 117 109 132
-1.9070025102750567 -0.7511391244380442 7.782905650257224 118 96 109
0.5205332334529366 0.14596090078434662 5.19266845268877 128 101 116
0.6788687504551396 -1.0464257656770468 5.170620172959736 127 105 126
0.6229223624385727 1.4065520494492976 4.8600645746937206 83 70 80
0.5317428272991813 -1.0686507120226658 5.316969711690431 127 104 122
-0.7977154552044944 0.2933272617163851 5.873945708516922 101 82 75
-0.31566055608545307 1.3815688649828766 4.9262573451013205 66 56 65
-3.8695725107663486 -2.5717551925773234 8.90629905901183 138 164 221
0.8210167229866232 0.27906048859778476 4.894906665546878 129 99 109
1.1848872802953434 0.9578611545171637 4.442538557275669 98 76 89
-0.1510172619181702 0.6321125396809201 5.169392604782868 106 75 93
-1.6458731152988424 -0.3501567973321341 7.446050829383061 112 88 102
0.6450306289967284 -1.4258496780114558 5.2452428431452836 123 101 122
-0.6580669359219906 0.15441664407645067 6.034531289376938 160 143 115
1.0955377204616301 -0.08427422912345307 4.644593243252699 138 120 134
0.7616946436876633 0.6540361864335432 4.910194807570587 127 122 145
0.9842829719515218 -0.9989486542641094 4.853503829726629 63 50 57
-1.8012585922483229 -0.16308998312190073 7.5589844104120525 120 100 128
0.4079233027275863 -1.0402537846454551 5.453428976418675 124 99 120
0.5840896527590611 -1.0576636044813235 5.279296557211104 114 87 104
0.7914093649686146 0.8604742668258043 4.902647686319279 118 101 119
0.7578053484174659 0.1731488817494499 4.9692300122418915 75 52 68
0.6580892136406747 -1.283737065814817 5.22891189034211 73 57 70
0.7514905716800914 -1.4619703242821596 5.131663021958006 124 101 121
0.15221610650965553 -1.1893428218007607 5.713226232691156 136 111 133
-1.5128346242100896 -2.6228764634329194 7.558328665350779 126 109 125
1.2899622670099051 0.8686970858644029 4.329435319012657 117 94 104
0.8814025850909304 -1.7818217894068125 5.03952030702804 109 85 101
-0.8104252278115742 0.0056415300675938295 6.038739456648549 139 120 106
-0.59920862775805 1.1920404257047892 4.729979073586735 133 88 108
0.9275522628729128 0.6289646345925403 4.76007184175498 82 68 81
0.9860504597144903 -1.258556885931025 4.880835361276058 98 75 93
1.2940677608177042 -0.6439817479895449 4.504812931054465 98 71 86
1.0322193858682538 0.21880256295657927 4.676467159869272 135 112 128
1.0479151134050615 1.1725158956243877 4.554337791077942 83 81 102
0.9863482687651473 -1.4823882671872612 4.896941347879623 112 88 102
-2.0725874467783547 0.31494185702047817 7.816510175295971 87 75 95
0.7370940011132899 1.203687472984695 4.87252148025455 78 65 75
1.1186837275012491 0.799343369978825 4.527284554652748 111 82 87
-1.2507749989635568 -1.8376683797805746 7.214804273204712 95 70 89
1.27426920027825 -0.9311627701178319 4.555260445595443 98 71 90
0.2280151942227054 0.09599733632912225 5.110370592244361 124 73 82
1.2167792212517397 -0.6821702966614619 4.59082172681917 126 101 122
0.39523168777425627 -0.9806418763855328 5.456264963945902 132 106 117
0.9039630997844202 -1.1786037567443237 4.955663792778309 69 58 72
-1.2284579841789258 -0.5077878491576641 6.664165561679962 71 38 49
1.1854780192618917 1.1123764447518254 4.437933104258438 92 78 101
1.0959406893600665 -0.2248247795873362 4.655589272560432 124 102 115
1.0056959703399688 -0.32171170818967726 4.7541468117571535 113 86 103
0.6206236915117821 -1.1356762974735468 5.227578394608727 130 108 129
0.7945309740219435 0.9778288238010514 4.837318272505428 109 78 94
-0.7891233374322725 0.9309527812091922 4.661242931445735 112 64 78
-0.6146526105118767 -0.9086023247314976 5.84005363438969 118 66 79
1.039241507149836 -0.06405755697265322 4.701561647368408 105 77 89
0.24510896222572384 1.3543055827759636 4.2277014717144 161 179 203
-1.9004703762536501 -0.8079803232522001 7.748181974290108 118 90 104
-1.9731642972959373 -0.09484936347068554 7.701079111615244 59 43 69
0.7571976477627558 -0.8403660243014724 5.067700176561879 131 110 129
0.2136150640260154 -0.9684312028071279 5.634939069734055 106 74 87
-1.6666873565339115 -0.6766965483683479 7.50921162619703 85 59 72
0.7870077760390775 0.8936848102361545 4.857933771407099 129 114 133
-0.478562375417709 -0.1542716578890628 5.798364527988982 105 75 99
1.05960254837472 -1.4162464507947814 4.8298801574164445 66 49 67
0.6201037314537434 1.1113637926272801 5.022129883911559 43 26 32
0.624894456091671 0.33181672803404655 5.105230242162892 113 101 121
0.7325062210554348 -0.7547154177767503 5.089339253286935 119 100 119
0.5158240717015478 0.4723478851434409 5.1890535883332145 86 63 83
0.532183923122179 0.44487350543611276 5.159941114723047 113 85 100
0.9475640342332959 -1.5648359751079686 4.9472404718079455 95 76 95
-0.941661168651895 -0.6082756614003024 6.271544725684066 57 25 28
1.0882256041845082 -0.33519782260298076 4.677156096782172 97 72 91
0.5394776976449158 -1.9215298427601164 5.412248753716542 96 63 80
0.2467552253994026 -0.35890297585581654 5.534870369556513 128 97 113
1.0463727806674705 0.09627459180673444 4.675346478591773 126 101 120
1.284840201635822 -0.7874940461373151 4.525936703911239 101 72 90
0.6025519520552113 0.3296188630155322 5.129747570516438 117 105 125
0.9507864580940684 -0.9849917839655506 4.886101092804946 67 49 65
-0.2375440204424442 1.2999994842891263 5.012316410211932 89 51 62
0.585754268766566 -1.0408407524822023 5.267770338052295 137 116 131
2.3193307549967996 1.2018162868312336 4.817275434152005 150 146 169
1.242033227318936 0.6586151979076758 4.40385723465899 127 103 116
1.1632123854633916 -1.4662366725610099 4.72163742871919 108 84 98
1.2945730838966558 1.2005274987294277 4.187584808462206 103 91 113
-1.9987750821695922 -0.10924937308817122 7.771624482069474 100 81 103
-0.5901043440547974 0.45058843490281253 5.846778758953159 63 30 39
-0.08380796398226488 0.8669411433058962 5.010725989695392 53 27 28
0.96580766738604 -0.8047221482817267 4.854968285878973 115 98 116
0.20845080249090217 -0.5248230296069798 5.603104140569341 93 65 80
-2.165889934625625 -1.5877103916642965 8.08289047349503 129 110 129
0.8912161239971917 -1.5885846551707297 5.033012437725881 120 103 122
1.036135836404975 0.5715474060608497 4.638798144478977 94 66 78
0.07917878232391934 0.5123915594801807 5.132927805927522 147 94 112
0.5447131889673286 1.302607567551345 4.954037489731847 104 92 104
-0.031009151256294488 1.296320641006218 4.885546883752468 102 73 78
1.0846818142606383 0.9251679375516488 4.540013911318791 107 83 97
0.9845961710031352 -0.2905542776725512 4.778278560161312 109 81 96
0.5366642723405546 0.18091554727155146 5.1890181908984605 98 67 73
-0.3438386027988135 1.3108173110478891 4.911808162408849 123 80 97
-1.291954322691434 -1.8226425802340482 7.252610558849629 77 55 68
0.9653420849688322 0.2147968076570665 4.746259025049951 107 86 103
0.9640505600401948 0.9110617201363083 4.694964524302272 93 74 93
0.7545735523053277 1.0657822739222231 4.872118953732476 120 102 124
1.2525367262914924 -1.2328574362633589 4.599952799965897 98 75 101
-1.497230159739781 -1.096437623492787 7.369034607608958 131 112 132
0.9379512210302577 0.6151262764164757 4.7454590770003335 116 94 106
1.1546918449069778 0.8943692183926916 4.489861463122151 89 75 90
-0.4131629627417522 -0.9844953717934317 5.809053448561532 60 25 31
-1.1345857860388266 0.7399093656504929 6.145999167198932 78 42 54
-0.13694309328778873 -1.9657323238245155 6.098401301695934 75 53 66
0.8936138097803797 -0.8070433714604556 4.931838173445557 104 74 84
0.23915028324609972 -0.4598621519064791 5.541752027343174 128 92 104
0.11916656475395605 -1.0684533194595613 5.731236194127137 141 118 138
0.5897049405711958 -0.09959223545661125 5.154395524887788 95 71 85
1.0712995016350564 -1.6737991557689853 4.834744423352831 122 100 121
0.728780949733613 -0.5989548255978249 5.079034146529593 109 85 101
-0.9415242453286938 1.038925240250503 4.654306522308181 145 98 116
1.2542552180325368 0.25103179727253655 4.458975739577045 76 49 68
1.1033064091073352 1.0556253792219508 4.514745300057934 103 80 98
1.1914583494980493 -0.21286370400693272 4.577429540010334 101 82 101
-1.07455199311581 1.3278731279458547 4.559896619142926 132 85 101
0.5925824029723354 -0.38822572888223805 5.201936698097568 49 33 43
-1.3267482070584529 0.007943460241063566 6.789241849614819 77 31 42
-0.0891327861625106 0.9647638972232897 5.049802271824287 67 35 36
-0.2494866967144473 0.9288789725807787 5.125517478120693 54 28 31
0.00987765557036941 -2.071162227072565 5.963579329449435 68 56 70
0.790924896154159 0.24055590743176483 4.9226643942933395 124 100 113
-1.9715509797688628 0.6837014040157017 7.67074196261524 34 33 51
0.9451790295022778 1.0835132441430373 4.66726593220512 110 94 120
0.8041446499625055 -0.20662422618610002 4.968932247910714 119 95 117
0.9683517686610489 1.1870725933595205 4.613306074028544 119 116 143
0.6052075314877433 0.1930498363039442 5.113985047505181 133 110 126
0.29550233549851457 -0.7546903722767565 5.536472198372021 97 74 94
-2.0493841835952273 -0.28087794819805006 7.831143773760232 109 95 121
0.7944200632079752 0.3282894210206825 4.922874987753136 117 86 92
-0.18922695740872172 -1.7116938909183248 6.130563718610634 133 108 129
0.3465304143253833 -1.052078662016024 5.508781327186213 90 68 80
1.1556457963760802 0.8478291233713896 4.494808391177155 108 81 90
-0.43145270440906797 -1.993002712588894 6.307630479731644 96 84 70
-2.04737991594923 -0.7951084185108606 7.8803107005872155 112 87 106
-1.8877894918607996 -1.9786127638384672 7.868961217454898 74 52 64
0.3717625754858462 -0.34974396498505855 5.398412637968219 146 119 138
-0.44270168723263864 -1.0092775128991804 5.763344457000434 94 51 61
0.6737239743423371 0.01777891712359138 5.048617613800939 106 82 98
-0.6806483637599998 0.7997916643151615 4.625764741525325 118 65 81
0.10508846195469711 0.7546498470698587 4.909146827232184 138 87 104
-3.9186940694063472 -2.0659303576564274 8.768687334191481 186 200 249
-1.5941488448086274 0.5966883724470025 6.9049009017484355 125 80 100
-0.8638994618499117 0.8303485460158195 4.642519820723007 72 35 42
0.8558597078209513 -1.2052063113008764 5.009626793046633 121 100 119
0.6695218419534418 -0.15601438067861112 5.072497296974633 109 88 105
1.0852457304582248 -0.30176901241829956 4.670524750496307 127 104 124
-0.141830312717598 -1.6845219258123163 6.054150539373883 141 113 128
1.1362594988858916 0.39584662859836456 4.554505486215325 112 80 91
1.252420713241806 1.1532219963140233 4.340980418547724 70 65 87
0.7250464038019296 -0.9636033905752668 5.124278537748098 133 116 134
0.7899548403566061 -0.8148710145051562 5.036596849672686 129 112 131
1.0956708191299869 0.5853240313577391 4.572972724014564 132 108 122
0.5801390305819438 0.08092385024760988 5.150040245852967 122 99 117
-0.41326332091169143 -1.3258776587580758 5.674024710302044 144 94 105
0.4654060208430362 -1.0627476175372816 5.383880215821616 130 112 126
-1.5894914386532755 -1.7872526643750817 7.53978800048824 70 52 64
1.277990511379182 -0.6985487324404536 4.515223723273495 113 82 98
1.1988720793063967 -1.0394097123280723 4.641908945839393 124 104 129
-1.5112027954825964 -2.050081457024259 7.498833860016151 131 104 119
1.2147010877516475 -1.2749513125590324 4.650673021526286 133 104 124
1.1960391301201778 0.5725054103518149 4.472498489512145 121 101 113
0.7100997688685553 0.9734360635329087 4.929798610038628 123 106 125
1.2763717131029784 -0.9468302186188654 4.545323658554602 120 97 115
-1.1001293059758395 0.9624807606234769 6.002428799666095 101 65 77
1.2699361165646632 -0.40773954938280427 4.499435547081889 106 76 88
0.585423007045573 1.2989930856374423 4.903349242848229 111 95 108
1.192362154081489 0.2990513512600289 4.488085507863108 122 94 108
-0.26764933680667635 -2.066261774184909 6.241326768040789 74 56 78
1.146465960844517 1.1670557796047945 4.4311033532855255 111 111 137
0.7986555375409792 -0.4161872936342061 4.998065683021874 108 81 88
0.6702169456651065 0.29214689183545467 5.046707348338803 115 91 107
-1.1736906710991146 0.9573404979951216 6.075374844192701 95 62 73
0.7624272133225135 -1.1957281632816492 5.101615957334919 107 86 101
0.9950014780359834 1.093732968181444 4.625268572609671 120 103 122
1.0253236738352312 0.45608214420791676 4.670936872630426 110 86 100
1.2251665994739904 -0.30871034285254995 4.535434815182338 101 77 93
-0.431119115598082 0.9559141943064097 4.936979478953858 78 37 51
1.2912712110230418 -0.49621484082855266 4.486019068575284 128 101 118
-2.015826365212948 -2.4212366600579096 8.033703687521946 96 81 100
-0.23826715314555444 -1.650662588166793 6.163901490245791 115 82 99
0.44913101691569784 -1.2623200143862545 5.405268949404846 106 83 103
0.9503174966455443 1.1922228226699991 4.626061106901131 135 123 145
-1.848605155097048 -0.612791453320794 7.673109860514141 111 97 122
-0.4751707716084929 -0.8960973173173071 5.719252779335474 131 83 95
1.0536343647481627 -0.9921247672795966 4.786602446899094 124 101 117
-0.9371156738080609 -0.8579507855519879 6.225045870440182 36 16 15
0.20046126458139113 0.07050211797275496 5.1193127182371425 58 27 33
-3.240402338174721 1.694626463285624 8.113139049347275 25 57 34
1.0779132305448915 -0.2905503533449105 4.683818568180236 97 74 90
-0.06245821908278257 1.3231651435753806 4.920919356080755 113 71 81
0.8159337906603911 -0.4046350761380896 4.943572801319766 130 111 130
0.9219994895493206 -1.044902425509748 4.907923908435048 123 99 121
1.2121008585569428 -0.8521102329379028 4.59627332478967 123 102 119
0.8110119739894383 0.9822479425074688 4.821301120517927 133 110 130
1.138816053813333 0.8408019345426134 4.505265812168075 121 93 107
0.5466477664594726 -1.0125470116839907 5.307534342917514 117 84 95
0.9801307280749885 -1.06554454727426 4.858651435437324 91 67 81
0.006121317438835521 0.781094622547344 5.0005344005106656 133 76 91
-0.7679988369431892 0.9282781271182543 4.66273411460094 102 54 68
-1.9566003493199406 -0.2973983773542478 7.7462365126701 121 97 121
1.2684130440329098 1.1405512393820358 4.30477207323911 83 70 88
0.013467033955732174 0.7528169718951757 4.921891126415769 142 89 109
1.264888598196624 -0.11927456124557174 4.476171077667925 101 76 97
1.2189379265218128 -1.0318564486745245 4.6089634921215294 103 79 95
1.2222840600371454 -0.37728091796401025 4.5442814358068215 118 93 114
-0.06813810034479846 0.8072037071393777 4.971574974048802 115 61 74
-1.566862053310116 0.7244532094985533 6.705449598745925 72 50 53
-1.978195067798915 -0.28502891221165616 7.7739987360255185 95 78 97
0.7701365878699726 -1.2222670765269705 5.093093881629117 131 118 144
-0.8216696433112191 0.7442697880000718 5.846674972947805 72 44 59
1.3163041532457131 1.2506877494783148 4.142230030213358 73 69 84
1.2499961612256432 -0.08964767883391073 4.483620705496396 98 75 95
1.068349203628653 -1.013841479598265 4.7698294214234975 86 65 82
0.6835395481481435 -0.2945667360800626 5.091727711590195 88 64 77
0.6089948971470982 -1.009438239436824 5.25334525541939 133 110 126
1.1702941076645432 -0.1065785534959963 4.590191703512303 114 91 109
-0.8144635785820531 0.9143171692582173 4.661700764787439 132 85 103
0.6373483876090207 -0.1748565789452278 5.116391887018966 141 119 132
0.7872057432378188 -1.1999020497659785 5.070749837876549 112 88 101
0.7973749317725385 -1.1220057117700761 5.0609051197299015 91 70 77
1.1673421534797719 -0.2661048139570639 4.590218995734283 117 98 118
1.2471740935054254 -1.3605758740923972 4.62219427089286 118 93 115
0.07822043202823117 0.7912947758638968 4.821865902742721 107 61 71
0.6745339036501482 -1.1132967735279053 5.177574101174284 85 68 76
1.07703529296228 0.12105385141797573 4.642400426162092 120 98 111
0.5471777881830752 0.5534799986282454 5.137821545833084 69 50 70
0.5303723848387151 -0.744445601155115 5.303604908480062 63 50 67
-1.2488807013635546 -1.2111149565497332 6.4168013194159865 69 33 35
-2.423414182280186 1.166971931970553 8.082780231052682 93 106 141
0.3864791222222077 -0.8433967327313482 5.441285007527608 122 100 121
1.224142242609557 -0.3926267112181448 4.544005258945726 100 73 88
0.3165550350409584 -1.7227015682996565 5.6085326755439855 116 97 116
0.23947481708076412 -1.3133215183947715 5.64509880408605 136 115 134
1.1116150110095686 -0.6344715030854843 4.690313607932956 112 95 114
-1.8837640801343059 -1.7771846542796743 7.841915371509545 114 97 113
1.3161694759655345 1.250289942770909 4.140686266543106 73 69 84
0.7949341421285488 1.1674235654374479 4.823034686310685 115 81 97
0.5769499637160982 0.7603490015104633 5.082829570009529 108 87 104
1.0331053890086874 -1.0676205645534036 4.800248701900532 133 111 132
0.6460622641136683 -0.964517968503475 5.217149730175372 110 93 111
0.9990227336307101 -0.5294848909875335 4.786264579605425 138 107 123
0.8567658066394817 0.13734317471390148 4.87258421148237 83 58 64
0.4595341440778307 -0.7624095233342727 5.375162439694645 128 110 136
1.3849969581790849 -0.1651216883426596 4.432969881534194 118 99 121
-0.12831152276666105 0.603362911593212 5.158224894822538 129 85 100
0.7557151197399747 -0.98225386181534 5.101999697283359 86 72 89
1.120858283179026 0.8508770308749437 4.5201451417081016 112 84 96
0.7614824656720871 0.05422205040049871 4.97925581101353 102 82 94
1.150825906692754 0.6139223986788621 4.520635334347039 116 105 121
-0.7810411366729786 0.9925827761499956 4.663265087279356 142 99 119
-0.8502090669084134 0.688115069949577 5.879643845082532 125 136 181
-2.1841956675978635 1.0003131433237653 7.859370202082141 90 75 94
-0.23516274394263728 0.38625618893666125 5.699485476902157 60 19 25
1.0144485908569811 -0.7983741895738199 4.809970300077704 64 46 62
0.4239554797344321 -0.45817629441071533 5.36114320906189 118 87 103
-1.4776844408926026 -1.111621589311242 7.3597016706531555 72 58 71
1.1280351079046445 0.8784285609181317 4.517629143591185 123 100 116
1.227311263156101 -1.2660160843901096 4.635781199678563 113 82 100
0.7774374128006388 0.30678630607163726 4.939742373138427 124 106 130
-0.3711213013779751 0.5265443715218489 5.611988696787143 116 54 57
0.5453563459253443 -0.47661813519166046 5.236605375961349 124 97 116
-1.7666649074817142 -1.5437344533843134 7.688842006746661 126 101 120
-0.5207460454251639 -0.9697502992010907 5.769193539423663 115 65 77
-0.6184576380636307 0.29642304405680825 5.8265307829393596 192 185 175
-2.1545960150041137 -0.42994548345225225 7.981063603445303 63 51 65
1.0736950402227243 -0.6214808532517664 4.729678433525605 70 49 58
0.7116364008856778 -0.7658219998642285 5.1326943934158855 82 71 87
0.9920057309519443 0.31835306081797016 4.697396986770651 134 110 123
1.082550228297533 -1.4946257956580564 4.803969552173116 133 112 127
0.8707250330387034 0.19114732883064361 4.84855643535951 118 88 98
-0.9528428201216447 1.066379391515983 4.652004515024673 150 103 121
0.9534764930074122 1.1583591302440723 4.666346610408636 143 120 140
0.7481319341506132 0.4472745174675135 4.958524290793561 71 48 56
-0.8449396483395223 -1.4623773595026364 6.008850281033969 121 65 74
0.8831026436681774 -0.188017823792544 4.869214088287767 131 108 126
0.22932268458812471 -1.0745798636080806 5.6150654667483355 128 99 119
-1.6593835454354415 -0.32038163557150884 7.472610275930039 106 83 103
0.812400722782984 -1.242686680210287 5.055695562556335 118 99 121
0.07099278130823385 -1.1108022733576537 5.780431715962007 116 85 101
0.8027427269254082 -0.4175099568135554 4.98991836148409 102 74 86
-0.9658623779045865 -2.29281116914566 6.947637655929872 124 100 122
1.2345888538806593 0.29197560612576245 4.4628132491968815 103 77 88
1.232534152633978 -1.5287427264853088 4.6572579767921205 98 70 85
-4.069055634998173 -2.517362523182825 8.669465409592402 118 133 192
0.3381453716616131 -1.346018265487886 5.549866524524096 98 72 85
-0.27780114186461596 -1.0262071307953027 5.67448132833804 114 67 77
0.2671044144594003 -1.197908208575938 5.601884002788731 116 92 114
-0.9506843400523016 -0.6258361876528784 6.2400855406953 124 78 88
0.7426500683945203 0.8902687440427848 4.912748393721139 118 113 136
0.7091102532635272 0.3473429574799736 4.984104395889196 134 106 118
-1.107390933772207 0.24528910537922952 6.553160730582845 91 46 53
1.11123949544497 1.2396249908931243 4.369488184713888 88 79 96
0.7164487184859422 0.3438985612799878 4.986570801882287 140 119 128
0.9891900464697356 -1.6170200077371297 4.906253854618812 81 63 77
-0.40592157705354326 -0.11957815650275527 5.749275140209712 61 28 35
-2.7302961450808962 0.9702934953878136 8.339221980831628 91 102 132
-0.7783351691337095 1.307245036449452 4.577079990385717 102 62 73
0.7791044901557904 -1.50736525230036 5.1162329556505215 73 56 74
-1.4771026656860236 0.9595180189129312 4.951925705879835 78 44 60
-0.3751970849568847 1.1644871300128952 4.971862145383147 127 95 118
-2.7134894534287892 0.7915437917509278 8.348028362334619 38 38 64
-0.7065883067862547 1.3589208027544701 4.568653980438955 125 84 98
1.094411327032267 0.31981563803425045 4.5995132099693175 124 98 109
0.25307910928636324 -0.926120452732962 5.596669783367627 91 61 71
0.5837844318896718 0.19971554814068435 5.134670946385983 139 118 135
-0.4172952477136728 1.3092104569734266 4.835899016415817 107 71 85
-3.9233844479393194 -2.548749680205143 8.819916464515629 180 193 245
-1.6251069642746714 -1.4629290065858815 7.569756912819608 115 97 111
0.9733742689725517 0.7366559735637105 4.68498336019442 129 108 123
0.445458534537093 -1.7911666924497722 5.480777599228022 99 70 88
1.0535591471480183 1.3890864177729954 4.398229194298759 54 52 53
-1.128034935113832 1.2706403161532263 4.577975159520623 138 96 108
1.086055731347783 0.17843709265211483 4.633695134774538 138 118 130
-1.9816322114324199 -1.2719323918569982 7.887004729348663 96 70 81
1.2335656133399573 1.2349939326198336 4.2361218379930765 66 62 85
1.0858776141676914 -0.8638462101923361 4.734454747797458 130 111 131
-0.5824154260355556 0.6814248250481327 5.598166938113552 57 31 42
-0.18397829112975872 -1.6377479220041757 6.113522422743032 135 116 136
1.090563041893503 -0.44369128390285745 4.694920024060967 120 103 121
0.3469577920443813 -1.5199212923636354 5.552911036249958 135 120 143
0.7274072220176167 -0.11105857294099791 5.041503584871121 128 105 123
0.5866444680249124 0.11358708871623807 5.136194463630304 96 72 86
1.1427191696826773 0.5813879546513286 4.544726480001625 107 77 87
1.0027269679111168 1.0850766478282627 4.633930465792868 121 102 124
0.7913988108589404 -1.3957029136754089 5.099955449333457 81 70 87
0.2397845276084594 -0.46012834989945045 5.545699160729081 128 92 104
0.6702573428467873 -0.2679728497762186 5.100145567446396 100 73 90
0.24978467881329486 -0.8207608753711851 5.628632475732627 131 105 114
0.6670604012102125 0.16712394897181207 5.060809333153248 105 79 92
1.1809964247425313 1.0791909409604472 4.441246103377978 104 81 97
0.3530353437504586 -1.4586606677457679 5.5443542769529 106 82 98
-0.27176833289104957 -2.1337770810495624 6.2372350159099215 68 52 65
1.0006637859447394 -0.03494967617422951 4.760244493580359 75 57 73
0.8000817766999102 1.3303051136451431 4.700364089062042 112 98 111
-0.6845975202734076 0.7573643959242137 4.639842177616221 161 121 145
-1.09855983162482 1.077775193101492 4.645216669221855 140 102 127
1.3017537667079178 0.06374147934742878 4.419341197621495 131 107 123
1.151912881186499 1.0708927340637286 4.464688159400475 115 96 118
1.0251027015320853 0.6293355737815847 4.657523162345646 112 100 120
0.5898011677361926 0.7211099224434935 5.0678021152120145 78 64 81
1.278614384086985 1.0846539059466513 4.322659901897747 56 45 61
1.1244577589746318 -0.052174329339409464 4.619654341845052 119 109 133
-2.0566174344056902 0.16618940471654586 7.796268360297853 117 103 129
-0.32409517130933796 -1.2625977097882717 5.6178288037845725 46 25 24
1.009977556219792 -0.10899807055495322 4.733607652846185 98 70 85
0.07750221644093822 0.6849208990044988 4.930065770863024 90 49 63
0.8743256702797264 0.8460143423805058 4.776561127693081 106 87 107
1.10401539987042 -0.1884881735296926 4.651707557024116 137 120 136
-1.4306169557391644 0.6383708408372348 6.858855661241302 123 72 89
-0.3503500582358834 -2.126431830543678 6.302285350923388 97 74 102
-0.12917979000255 0.5828128059350353 5.166447700342805 151 118 135
0.8671664893226225 0.19380069269478492 4.844112289669836 118 87 95
-0.7528338141295633 -1.4161883513971656 5.996255754539321 48 23 29
1.1735517632023529 -0.4837193130248408 4.6101604446890505 97 72 91
-1.870028625471339 0.8710713644997103 5.562879255519976 153 119 143
1.1514536004285563 0.13831285537143495 4.575385966844957 126 112 129
-0.6803418507963439 0.12037484923095254 6.045095987940792 56 34 20
0.8211548789232335 -0.8218457785989933 5.003463900186181 118 99 119
-1.665106380683887 1.1129491077120666 5.120034009877674 77 40 57
1.2617550909206463 -1.0860874830733438 4.571949742159167 122 105 124
1.2157051695125074 1.113641225670891 4.398093633506414 94 83 113
1.2954425923959596 1.3559822645718063 4.149312158564347 10 19 24
0.8459960412673313 1.094241627504974 4.768434179384118 108 84 100
-0.3095862678021601 1.312007849282815 4.9380480093201955 125 82 99
1.2122444423086283 -1.2420702323252253 4.652019964719244 111 89 110
-0.017569224199512488 -0.02234589877536689 5.523366126309954 54 27 34
0.019836215046494653 -1.7187599939498417 5.9113378283616305 97 73 89
-0.19277985511843726 1.3497137540073842 5.003059818669988 45 41 42
0.748624517367106 -1.6499729033349588 5.15456426500997 82 63 82
-1.2890984726723826 1.073893126266687 4.74584674829953 89 48 62
0.7911307356640477 -0.0027748896643863146 4.950505301417739 104 80 96
-0.15418033713007084 -1.7163833086936575 6.10035822429273 132 103 121
-0.09890253143745831 0.5867115440264312 5.2173958061750865 144 115 135
1.0895839547629904 0.7523338460410061 4.5716407402406105 75 54 71
-0.6077562268825314 0.38687796971826505 5.8279917618003125 44 28 31
0.5168859617652266 -1.0756866218636556 5.343723728225882 134 111 127
0.540977791890618 1.2291904522422155 5.062015420365179 122 115 131
1.3345537832694316 1.3144853540617314 4.116572057586131 115 107 118
1.2155848661251916 0.06488088448860468 4.504868977141611 106 78 100
0.7386282911805082 -1.736590213187685 5.182609922732761 124 109 132
0.5129630659457516 0.20140024547093555 5.225838555884173 77 54 64
0.9260165234440155 -0.9531621067352073 4.8707845823999865 137 115 128
-0.05224330569411592 0.2794145785158124 5.51945568631356 123 70 80
-0.4103925481917576 0.6836961468345445 5.429566592495236 85 63 76
-0.6115209111110282 -0.8657901633934829 5.853875319894043 124 76 90
1.0422234585781527 -1.038630088107647 4.794346388170924 108 81 100
-0.14721810805516095 1.2449575901971148 5.075122414073573 128 85 104
0.8572910214070839 0.8558302981922646 4.783784256989788 127 117 141
-0.7713963273460056 0.2586136296776562 5.8758071485534265 128 121 115
1.211986951768255 -0.6452147255881928 4.601183145895557 112 85 104
0.2702444114241322 -1.0062329451644685 5.5817202211139065 145 121 137
1.2378881554086056 -0.24654448529641412 4.513547443680997 104 77 96
1.022796876175704 0.5204554577179191 4.6583690571824174 118 91 106
0.944114169050062 0.9264295965792255 4.698520895747396 125 111 128
0.8252744071462537 0.0043379786512073235 4.914320163776984 100 76 89
0.6769911571857513 0.1567391257901501 5.049974513548188 129 108 117
0.16838815089550935 -1.0668095501494348 5.683605952704477 127 95 118
0.46697065841814983 -1.240920401619461 5.406968344557641 125 106 126
-1.8594801940628274 0.6055690918739628 7.559692279832247 95 75 87
1.2943316416650912 -0.11365022908315975 4.45388771851917 115 90 112
-0.21550217783796316 -1.743850522642514 6.147074023651269 100 75 97
-1.5750189634908422 -0.4734984534201901 7.392138606957197 110 93 112
1.1352384440254064 0.13299058731598545 4.586483824382985 48 38 47
0.9570238388743241 1.2553982818057932 4.523197469134889 102 89 107
1.2437660711031049 -1.1028402986713137 4.591029180045863 111 96 117
0.21022582655894018 0.48691825406407535 4.984732062613073 133 76 91
-0.522581066491397 0.5207827536209892 5.736849823128359 135 84 103
-1.6274854274303814 -0.82318543972711 7.468221042065048 110 86 99
1.1791970260434184 0.8658874054198342 4.461014963409997 120 96 110
1.212161581832863 -1.2169233619637783 4.6381994732764245 86 65 84
0.6959461807617471 1.0257513412238306 4.960958539256275 106 88 112
0.8507211474674821 -0.3249663250838473 4.923026866000249 116 99 115
1.0768624108665268 0.4746077574840656 4.5963300726445295 105 79 88
1.0739383837854772 -0.2505853440878869 4.701965907886286 117 99 121
0.8951428908019449 -0.47528561649242507 4.889125486491671 130 102 117
0.7128240868913883 0.18720684606405738 5.002929837005908 111 84 99
0.6915882025200529 -0.016056164122099287 5.064239501963029 94 70 92
1.2771740852110811 -0.8515827465746533 4.540382332829563 100 81 101
0.9184728882037814 0.9093728143256959 4.726643529280449 129 107 119
1.1543913147921145 1.0544344581300245 4.465512840629914 101 78 96
-0.23346985382703794 0.3832667135988336 5.699019749540595 73 26 32
0.7998213810670163 0.7550098222656668 4.862083009406549 105 78 85
0.8118383758352212 -0.4387152946024006 4.9889591562116955 131 100 115
-2.741511494455818 0.4626667635062954 8.385133498136073 31 41 68
1.1908392229701061 0.6031304385172103 4.489409479081697 70 57 75
-1.5798241732691336 -1.6990400019119656 7.526452072291026 91 66 85
0.7255644927742887 -1.0340092370005494 5.115572875286875 124 99 120
-1.5542495304491435 0.9144524922367443 6.5655832713820415 73 41 52
0.11639518601995474 -1.467681142221357 5.777739041550956 115 86 106
0.5547610337584143 1.311297179305616 4.956758880834671 116 93 109
-0.4492280996116384 -0.15880276129313886 5.778449988114919 57 22 26
0.9157072765756659 -0.9758140653188863 4.930379992886422 135 114 129
1.2948361028361337 -1.140801560579648 4.548708905064052 100 76 98
1.0431298044751423 0.4217211160517499 4.660285944644313 119 98 113
0.5542556899737493 -1.148586519691919 5.301239097160815 102 75 90
0.023841255689491966 1.2744913855503317 4.8333972167946895 119 67 79
-1.367734100392656 -1.9100136199903257 7.345134840145462 130 103 122
-0.1256749127643187 0.7725991982062483 5.138285343728864 139 92 108
-0.4464842843902713 -0.2580495487070724 5.743906013413156 78 51 60
-1.423925089611595 0.6803387117670772 6.762802072472134 126 73 89
0.7202043383628705 -1.292125807169119 5.144912480284775 82 65 81
2.992239320407566 -1.8498590956492122 5.5504899362094395 40 54 80
-0.9772281114662384 -2.4486933422495087 6.992235747160961 131 106 127
1.2764882675650422 -0.7181012344380646 4.520956292381785 133 109 125
1.220882791481485 1.3687948381540473 4.213711962799489 86 70 119
1.1287633809624196 0.10194803221442714 4.5932966069084715 128 111 130
-0.5965431433239723 0.6648948638680957 5.615552930883507 133 90 109
0.5591044840645242 0.1855764520593487 5.172669383472772 101 69 80
0.7291084208535525 0.259423727001728 4.979602976680077 114 93 110
-1.4258158265040397 -2.610091492570649 7.466983651322977 129 107 130
1.1427093390197682 0.5454920078971176 4.526062407430401 131 104 113
0.7087396061655499 -0.7490581484616499 5.1118474514679155 122 103 125
1.2917437811339572 -0.4901655312283399 4.487123162510422 114 83 101
-1.1663247499704859 0.6850685991037472 6.306800734140468 104 57 67
0.9302823362394571 -1.4403035045609003 4.959364052550177 85 59 72
0.6132478628911002 -1.3783078594970883 5.2886478058275035 75 57 71
0.773682358886366 -0.8808935577861378 5.053818683394257 134 110 126
0.9169494562452494 -1.5329724787609635 4.962582936592536 120 93 108
0.5547901497231743 -1.2607770759634596 5.33872384377758 116 102 125
-0.8597310686803454 0.7069525328717549 5.869843619479345 98 57 65
1.1896081535128287 -1.276880524538197 4.670555312646561 132 105 124
0.7558260917063817 0.4711670814357179 4.96391502068922 97 92 112
0.3610543106912988 -0.38426859759483367 5.4128183211726295 141 111 123
-3.7229400177768857 -2.287871577611911 8.916029589382777 182 195 247
0.1367599271058071 -0.13261250955152043 5.064898743191572 164 116 132
0.5423374006719137 0.32589017194901415 5.187865314535955 93 66 75
0.11579248418292566 0.6987371601010998 4.8941568077829976 76 34 44
1.2830276051796345 0.07424621828543221 4.436500116398402 132 107 128
0.9626529771180402 0.24500863718383936 4.744240732978651 105 80 101
0.7713273048761025 0.32298087617801163 4.9340495838358205 117 89 104
0.3478961351793202 -0.7759253950915876 5.470326579732644 105 76 94
1.2964452123662313 -0.10373381339144527 4.444831767674718 127 100 117
-0.6449469095755271 -1.241070247513981 5.778501469795504 81 51 63
1.1565830401100996 -1.2469165299736322 4.699384122016286 104 72 93
1.2470443634350605 -1.1909790397948918 4.5889319937768835 125 106 126
0.11440219990494059 -0.4915401824113498 5.6789042040364786 107 91 117
0.9960220553901256 0.17208389545443273 4.709379235602373 117 98 117
0.998108523412014 -0.29907473745354546 4.761779120164078 126 103 123
0.3236238991219209 -1.0300419804075343 5.5337611526619295 135 112 128
0.6577414701146669 -0.9591248885649533 5.194046130332573 128 116 136
-2.0155738244997194 -0.40882775369075935 7.78503335616106 111 97 122
0.7346854440858361 1.041315766663756 4.895268509107477 93 74 94
0.9892001684439763 0.48900526055287746 4.696432758229584 130 107 123
0.3938634309563642 -1.812072034983726 5.536154401741752 96 67 87
0.8110300974047202 -0.3290418254901614 4.962725977748945 115 94 111
1.2851326413350244 -1.0957654187542654 4.554714099454545 102 83 103
0.9891820984104279 0.7546155818540604 4.676637947390896 120 98 110
0.634149470545757 0.9895678940083042 5.0201758950656785 72 57 86
-1.2021014621889476 1.236904538536007 4.585039674554197 156 108 132
0.6043787714317578 1.1457591847213935 5.054168460631307 71 59 79
0.20889789562675953 -1.3978690741761828 5.690145064868414 101 89 111
-1.9928791367900511 -1.722101567415344 7.919225926757144 84 70 83
-0.41393643537649566 0.8416092350620121 4.918922204083089 98 49 55
0.5654014690067934 1.1636755800767724 5.063852286172006 101 85 111
0.989904365043154 -1.2400226199289024 4.868753724335957 120 101 121
0.6218444033225002 -1.3383582954299207 5.239980756765689 123 106 125
1.0349815831316862 0.9661840139469289 4.5984081500643255 117 95 108
-2.2671234433587153 -1.9038227376341648 8.21636612527822 128 101 116
0.9493470230923939 0.9753718663455497 4.689749577385302 124 103 118
-0.8742812088532723 -2.281169745526104 6.8721593378084025 92 68 84
0.19361236397030568 -0.6146523792826628 5.613287825844227 99 72 87
0.9743820437868804 1.1006016952563829 4.646074839932986 115 97 121
0.7119483704563526 -0.14516785430112672 5.050737773057621 76 59 75
-0.21774940166823836 0.3648449312854931 5.6813762783851836 125 72 82
0.7901318524611766 -1.103082067630049 5.082164858548529 128 110 134
0.8951584887474038 0.23078419250183504 4.815852600856144 140 118 131
-1.066983112251426 -2.3489496931597937 7.070364117916258 75 54 71
-0.7634686822090837 -2.234832939140986 6.767184764918942 121 103 125
-1.1182583853573316 1.345597268106956 4.567407855891078 94 62 73
1.0219809894219472 -0.6522616250284565 4.772720114600982 126 101 123
1.2406868872598233 -0.07752496679448846 4.48775144796926 107 83 99
-1.7934876145481384 -2.457063157120803 7.833879275340508 102 84 100
0.7264502547285872 -1.3814031878939357 5.15614454488859 89 69 81
0.5407977402802141 0.4950403045440399 5.150909766971466 121 107 132
0.820332902758835 -0.45706649992620624 4.966706556078822 117 84 95
0.10108824544321106 -1.3297490778149788 5.7805071766461325 134 106 129
0.8575791780438837 -1.123332203989693 4.994519014130442 116 101 120
0.6483692418117665 -1.374814229888003 5.249371410357732 99 74 93
0.1668792801235214 1.2748684767438498 4.690709503166711 137 104 123
1.3669693900437798 0.00240622933451721 4.412165781613125 99 75 91
-1.8121277636933542 0.36872998299080073 7.554594977945614 64 47 63
1.7883617542772314 -0.545475982469127 4.658511725155116 126 150 188
0.9923285605632227 0.7432962995287652 4.645714122234427 127 102 121
-0.25838721609887677 1.3488594252054527 4.986474390204014 56 51 58
-1.222372088981104 0.8469326522893228 4.660787715053674 101 61 70
-2.092929065449559 -1.93170082195266 8.070605055370061 81 68 86
0.12445574164789935 0.46872875927022406 5.092277070355931 110 57 65
-1.8310413496254747 -0.27456665666941993 7.617059751839791 114 94 122
0.47488396456103926 -1.0771156504701174 5.387910592384393 106 75 90
0.3448601730904088 -0.1659672977892261 5.115536200754197 145 92 102
0.8896324672973415 0.9301168865754383 4.770454928808246 66 49 65
1.016673028662465 1.096126439343617 4.602250098198955 95 71 84
-0.42676900268574375 0.7010083555951725 5.44199867978933 137 92 112
-2.7246380095341647 0.9067186981164234 8.35372420331446 100 112 150
0.3435288942793867 -1.5767123989497942 5.562401753624352 119 90 108
0.8098801000419305 1.173250427104445 4.793740953730479 131 108 126
0.5185311303312499 -1.602170848146315 5.413047030849277 93 71 84
-1.9080295110471706 -2.5476451485870175 7.95248322488196 122 105 124
1.1662227607661841 -0.06308204918146115 4.589594165129756 65 49 60
0.8721492396825029 -0.8410412526219695 4.951714110558798 133 105 119
0.7898024513626221 -1.3450461193351544 5.086243548769898 101 76 95
0.6722403299789879 -1.3559084520440505 5.224838196619615 128 113 132
0.6561416075156792 0.5244818372305166 5.054635940855306 109 85 98
-0.5932482675487278 0.39520770621289514 5.835752051518542 91 56 63
0.802355082833557 0.1622214645622461 4.928253717041003 75 58 76
-0.4471021403264955 -2.089668849896466 6.292128261924699 172 167 174
1.1078010337759352 0.7892207941209466 4.53497149075919 124 97 106
-1.733198895437592 -2.1866849587661195 7.743761015877986 118 97 116
1.112226840030196 0.9433385156955187 4.511846728567796 98 71 88
1.2360759520126678 0.9352417168889796 4.401129722181022 122 102 114
0.5357262904198815 0.03260581770564815 5.203841507722604 131 108 128
0.6139901775869916 0.5715257578131798 5.059050212709489 132 104 119
-0.8151903400422349 -2.0994468358358964 6.809666682313164 84 66 82
1.166952358204262 0.1343782975533184 4.542268425638115 130 113 132
0.3178278200225421 -1.0907359189446975 5.545348809384727 127 110 129
0.8539126921577307 -1.5224022712143526 5.035011817198574 126 101 122
-0.6527009051889732 0.6706912395558173 5.672521022852268 68 42 55
-0.22691173121734798 0.960218309533206 5.127723208440833 96 56 65
0.8168743919143305 -0.6231188313388113 4.97725208981541 80 62 74
0.6702895254170221 -0.9334632305034402 5.1661371101803395 123 104 126
0.2764826358787783 0.427851706788959 5.102591086154527 116 65 72
1.2013825392308628 0.08644182507890359 4.520770414383583 129 110 130
-1.9426623335164295 -0.04532536554447567 7.698319489095706 125 108 127
1.6058203722926547 -0.8829816591440626 4.714112638773628 77 76 94
1.2891625779900493 1.24650494202582 4.168215815360142 15 22 38
0.18062254950325662 -1.3089781059232444 5.705137071506893 65 47 63
0.5708655215268252 1.184859836418169 5.051502527722088 96 86 110
-1.3848827754244784 0.9022427508015237 6.40552934334817 131 83 105
1.2209442256042307 0.3956134065042033 4.48482585199702 107 80 95
-0.1290006306316541 0.20975699464834688 5.5431373025369535 102 51 56
0.45937043782598125 -0.525349903515023 5.327415841949318 127 102 123
0.8251144810048064 -0.016726441777465947 4.92179029852701 125 107 123
-0.9451413319799699 1.2689813143325797 4.592010121478762 112 84 98
1.1515270031225233 -1.379843689442904 4.729381180364599 125 101 123
0.39962434301262106 -0.7616789842230502 5.419004472211859 99 68 84
0.7099092591698046 0.6147816153028657 4.980797874555355 128 124 147
0.565130623787502 -0.2620982184289055 5.1975724353949655 129 105 121
0.3533995081405367 -1.5833642558256376 5.536836120062598 133 108 127
-0.2191127202595442 -2.0557596513427203 6.187514781069145 73 49 63
1.0450049773827066 -0.3208411268264243 4.725675514630826 103 74 94
0.9764413799073272 -1.6041886716671532 4.94219806969415 126 105 124
0.8830881733604686 -0.6167905773436743 4.912680260642558 121 94 113
1.3139177991400064 0.9535025759529828 4.305690522836276 76 60 71
0.7363606806452718 0.7772210255533171 4.917422032001109 129 101 113
1.1116009599299879 0.16627696072721893 4.607026871117904 114 99 120
1.0557082372265434 0.7784013354731939 4.609194109470213 125 112 129
0.1979676508743933 -1.612100617480823 5.716556270713569 99 72 81
-0.7970925179685414 -2.1071187050900457 6.778137213383717 122 103 122
-2.159694529087788 -0.9196852242217531 8.025499388520736 78 56 69
0.5930669441053739 -0.8934861667481074 5.235479828737153 120 97 117
-0.6262506434730278 0.7351410932408892 5.637903832494403 130 89 107
0.952893049694815 -0.892775464110581 4.876989719502345 110 86 100
0.6486090316676145 0.9443481650717018 5.011514759402193 77 57 69
0.9312017843074776 1.131152720224067 4.69608776228125 97 93 120
1.312751415647526 0.8510852205508851 4.3196796841190315 119 96 114
-2.1036932537705977 -2.4293609226146713 8.114794301531685 129 112 131
0.6954254276162593 0.2522365833649729 5.0122575477106315 128 104 126
-2.0277227067919594 -0.6214612468100125 7.843320357527601 81 65 76
0.709245538848054 -0.7654334825526027 5.128821393710632 89 78 92
0.33636482857070443 -0.3857149173074539 5.4541308827833666 130 101 119
1.0113286057618245 -0.7313742040964284 4.797059759217354 111 84 103
-1.477530967546092 0.7630774292092964 6.495506063240898 62 36 45
0.2197543014678525 -0.9301904256403918 5.613669879776112 142 115 132
-0.06974518696936995 0.5881624028185631 5.086511042423222 124 77 93
-0.47567288022564924 0.7426362346995877 5.483968742792497 90 54 68
0.1508781402699002 -0.5259134971337743 5.664541487092902 108 75 92
0.6266121656620504 -0.13595019671125666 5.124318544759784 121 97 110
1.002775196895728 0.11675898500656626 4.710553093688082 98 74 88
-2.726935009122253 1.0129280096171813 8.319661655076528 94 105 137
0.9404433409123215 0.03917800464353314 4.788198376190518 122 99 115
