ply
format ascii 1.0
element vertex 705
property float x
property float y
property float z
property uchar red
property uchar green
property uchar blue
end_header
1.0376832613330365 -1.8006767651216509 11.63163438650309 128 142 187
-4.747388284995523 0.8386374699036913 9.510181170404671 64 67 98
1.9243667814543004 0.08988043501928045 11.239914426557887 118 130 170
-4.0764483776334846 -1.2028981745836507 10.233406816937643 41 64 105
-1.7744901409926213 1.2071794964262454 10.285709047540296 43 55 81
5.018751886837304 1.8171363694255285 11.68423340015993 84 100 134
5.180497650287106 -2.155429095795008 13.08296562949351 92 102 137
-2.597874322882045 1.3453252289554314 9.905095157362767 113 126 168
1.4776889485196167 -2.0376980388328567 11.97111637206011 138 155 198
3.7732241196867813 -2.3412691747271186 12.713984831441428 55 65 100
3.639775664581989 1.303439665372964 11.323564943067357 86 96 131
0.3835234012210486 0.9386068223805032 10.699379085853183 49 51 64
-0.8398431763033486 0.6783900568010129 10.45148785427499 40 45 51
-3.945877293255906 2.103143385232996 9.601022210269447 60 48 58
2.4069305575572275 -3.035499774795365 12.586138930095986 106 119 153
1.7133070882630426 1.8086840442384473 10.82482648763534 65 69 106
3.2454847667881697 1.80223203509662 11.115748866409609 101 121 156
5.0902585854792655 1.112595150239928 11.597286468676247 77 86 117
-3.0257160469323736 2.386570784402185 9.661755627146826 85 95 131
2.8001060607713932 0.8480829047793258 11.22506550026173 78 87 128
2.269174048786708 0.559557132748379 11.193592264957182 64 55 82
3.98713285192757 -2.481247777742612 12.786373514327373 80 100 133
-3.0329426564960316 -0.8970137204784193 10.310034277893331 89 86 115
2.096460328125546 1.9126086608890212 10.865551490817314 95 109 144
-0.6993569174333248 0.11441698259601626 9.595974713946038 57 37 39
-2.473085442071299 0.7366119761929888 10.096288395082555 94 104 140
-3.0909087292225625 -0.5686433125623193 10.203931561742952 106 110 145
2.3981162920074652 1.1327428590263926 11.095634890897445 77 81 116
-4.130681229027993 0.3843848328124697 9.76036843380556 109 127 167
-1.1943920497234772 2.1983743960924422 9.94612026601029 106 103 94
1.3507374948133462 -2.272745099010752 12.051415554582707 77 94 146
-3.665408774352274 -0.5208128037161731 10.071477228742667 124 120 143
-4.6763565471098705 0.47087632273543123 9.60337565445097 89 102 137
2.463249434351352 -2.8368755156651635 12.537248229776505 72 65 72
0.6103702063059322 -3.3758680917834654 12.13479248503243 66 53 62
1.4971106898366213 -2.6769667191536444 12.23657746515966 129 146 192
-3.3740349213915573 -2.735572145173919 10.785920997698335 58 70 108
-4.60410280954911 2.081196251021456 9.375440255171554 78 92 129
2.5128579666446282 0.9345935554474073 11.23568571545461 61 72 104
-4.5109909555968635 -0.6048963749318841 9.876433270906617 117 105 125
4.949898349952031 -2.1756525337794312 13.139538130746296 33 39 71
5.2020911289488305 -2.229199343623659 13.15295369466886 90 101 131
-4.535635664891256 -3.3854064750342134 10.712644318137249 129 137 183
-1.1225166052491855 -1.3818135433445133 10.92445549142272 98 97 105
-4.45006737136044 -0.565321104024939 9.866146526445283 47 31 42
-4.0052583755608895 -3.2605495504591078 10.848168977761622 72 97 151
1.9166342549989084 -0.670549256312731 11.413096387506048 116 129 171
-0.09364817567149461 -0.8218351636202776 11.029819503055812 121 136 175
1.2998464798123424 -1.826248479382415 11.727963686134597 86 95 136
-4.242313757145152 0.24948922831251363 9.756719026108291 104 118 157
-2.833234417444935 -1.618615390456819 10.557908161382404 107 101 135
1.2617173477170773 -1.3474824750976784 11.532713457622672 81 98 142
3.5489541360553396 0.6237573281251643 11.459559249616978 114 111 106
-0.7497037677991776 -1.8385151302135696 11.117231526853496 110 121 151
-2.1794101454507717 2.298456314626501 9.894642152904572 56 63 92
-0.7838492097643148 -1.9883002791769147 11.106427139133688 157 176 219
1.4614853285998883 -0.32479537851851636 11.341989618718081 118 135 178
-4.092041287310597 0.2608955778194232 9.819463449458254 108 125 168
-4.3074643995806605 0.8207974829237543 9.748850142555499 50 64 93
-1.0443423140404846 -2.0454108134899145 11.153195471538549 101 101 113
-0.5620948114385012 -0.8446839562326248 10.918855488414328 130 139 178
-3.1518307451403067 -1.7877767144344556 10.537496422088276 60 57 86
-3.0037598839503925 2.6240684003023897 9.639110277140908 84 67 77
-2.3975887805454104 -2.791917287047524 11.044417103151254 111 123 163
2.260110350644834 2.5709911352873873 10.890049982015201 55 66 98
0.6279866220532777 1.1518349528636043 10.676914052495604 44 51 69
-3.8778444752402073 -2.655163684156086 10.59591053922383 82 99 142
-2.227328029015615 0.45172373827056217 10.17510043244217 107 122 155
-2.5944798889498433 -2.993949876367727 11.018797660724163 109 123 168
2.5561955161027683 2.36016824338401 10.969821273399724 76 78 116
1.4589032004240206 0.04136905716233236 11.278778904151103 118 129 174
4.283493095966499 0.9850090294877399 11.44241354623867 61 66 104
-4.099900669600752 2.1430655839426564 9.467724078178016 67 71 106
-2.349033491061723 1.266776225431164 9.993977425618276 92 102 137
-1.5909764884753477 0.03973708965262419 10.401773756379132 119 132 176
-1.8824073468247804 -0.08388073929816284 10.380296642339337 106 115 156
-3.5166650082358193 -1.5362210388889135 10.37539086624519 119 136 182
-1.7120767516789979 -1.7414319469443236 10.863982120584032 124 137 182
-4.231494437263245 -2.2860524752217626 10.382197972778448 91 108 151
-4.607094742982057 -2.2574156592781804 10.268116555990312 121 138 184
-1.6194941297135552 1.3480470917576606 10.290031857881695 128 142 181
4.133546417528223 1.2043619322774362 11.458884202155451 66 70 105
2.9152139543038658 -1.6288280386665765 12.173362572760956 105 119 156
-4.399129796160693 -2.172974039915542 10.325921873716853 81 75 87
-2.1396390383185633 -0.11471981050253224 10.34537284028027 122 139 183
3.6992234269031687 -1.9129844361437012 12.492592343193504 79 82 117
1.7352567804276153 1.5428285082922375 10.83632090639205 110 128 164
-1.3874987396961744 -1.210582496933066 10.781689758591744 87 100 142
-3.6492075690589165 -2.2379856443168147 10.536812996605084 111 118 160
1.892204219497891 -3.516376325606176 12.449723510444395 44 32 36
0.40201909525647683 1.3584271158825811 10.614369608635084 35 36 56
-0.7127145121582905 -2.1488593949318866 11.178704157009898 28 34 60
3.547682854110288 1.132805027729953 11.30695276899024 104 123 156
2.425291836222839 1.5879025411226504 10.992373801543314 106 125 158
-3.516273719996477 1.5760138040846807 9.686920683809088 91 102 134
-4.006252942381884 0.24442008043244182 9.809957700212488 87 95 132
1.4970829961518792 -2.8400871401963186 12.293118222612874 123 140 186
-4.1010315462230436 0.7317799050155245 9.825234564479867 117 134 178
-4.0353622431174445 2.4858163822406776 9.461944295379137 55 63 84
4.7320955859975244 0.31940658771706554 11.938905947800928 86 114 154
-3.3888405967909905 1.0524370399984626 9.805624598938742 63 74 106
-1.5888291966872916 -0.22514896102116266 10.431996759555282 100 86 103
4.613798892797691 0.3458298695538304 11.894774703308858 27 32 61
-3.4452500278752427 1.6277642979603362 9.697243314808137 92 104 144
4.966959688442607 1.434188706683261 11.525403218079973 41 47 73
-4.314233402045973 -2.4452194645242997 10.403999522844924 110 122 160
3.1908585042149995 0.9053636586099186 11.235161025979716 100 114 151
-1.6238066723503204 -0.5248273335821735 10.67209027778147 132 147 190
1.4818239501412012 -2.5893434084174896 12.181511016543924 131 149 195
-1.289242303014977 0.26640592235433247 10.370877774877457 87 68 74
2.4168230880573676 1.633591200410462 10.989876240700232 92 109 152
2.2638730753392924 -1.992516451075168 12.09101132319829 85 80 112
-3.2319823737109816 -3.9115906717863673 11.140419930478458 51 40 54
-4.132434229051454 -0.6358148546839183 10.087650775879958 134 151 197
1.250776064450032 -0.9103385942485184 11.459576952389114 148 166 212
-3.893106783872309 0.45039397668724634 9.808621097828823 118 133 176
5.019294506445047 0.03659231769499267 12.051174601785323 73 70 99
2.2414924032707164 0.5333113047953193 11.19314782077704 109 98 106
-4.253994846465236 -2.4792415107302066 10.43837280620529 63 72 113
-4.5697673159364225 -1.2452696692919147 10.060509687903156 101 116 157
4.478702350715156 1.9261955083417026 11.457607456794427 27 35 56
-4.21606606501715 2.105315151637823 9.454166974934557 91 95 130
1.521860395176021 2.3701206032526883 10.72875517768606 59 64 96
-2.8861377939310695 1.1356586037557974 9.902787572461147 62 68 102
-3.5648153564039804 0.8144682153666188 9.815195772083586 85 100 143
3.6213077164690612 0.6950249562169714 11.466634749730838 107 122 161
-4.250531285595341 1.9277688621989628 9.590819064861925 35 47 73
3.395137226778386 1.1813254280709642 11.252368163022146 106 124 164
-1.8442558759302659 -0.9768035628563035 10.70047983068646 29 33 58
1.1757835813211839 -1.2535803852839331 11.492637691035643 130 143 185
2.001461293143961 -2.1917808833976653 12.056905100031106 81 87 123
4.991327401348373 1.463735512590936 11.531794921956507 82 102 135
-3.6384620137179984 -3.0435144200932687 10.758199118239098 121 135 180
-0.18853061848777175 -1.3425015861864316 11.110289011902285 89 91 106
-2.344170701775196 1.0860434644255543 10.074346577965688 94 107 139
-2.0587919374001373 2.209567037124563 9.948724142945009 73 72 106
1.685093204846721 -0.7138172986286394 11.42818799763537 123 138 181
0.8183369991646278 0.2116720959275713 9.499141080858935 65 40 46
-4.459059937109266 -0.5577406255819521 9.90215889363928 71 59 71
-3.890558540699308 -2.9159672164251864 10.584164747915965 107 103 120
-3.232759311831198 -0.193518239896264 10.19840718764923 116 129 171
-1.537879934379534 2.152038588894193 10.120487349052226 99 64 71
-4.40689577957244 -0.8194599273196508 10.053151247197649 20 31 49
-2.5567915259543166 0.5661329242814129 10.056173903519374 98 111 146
-0.9964241127208907 0.5344550880382878 10.170883496842466 15 14 19
3.658397184583613 -1.8595167191771511 12.70920282464499 77 74 105
4.485425401054003 2.4457341543313906 11.265941887050653 64 73 106
1.9182983811933312 -1.8692731920086025 11.93392436477175 105 104 138
0.4728106574463212 -2.669690941549058 11.828011208448876 90 96 132
0.17499674552101632 -1.4808160399529722 11.245499899392696 141 136 114
-1.4738032454454457 -2.855119686885488 11.316288128051918 123 138 179
4.742203100319219 -0.18942432476497156 12.169956127784433 29 31 52
3.9163585691528358 0.16695198968501326 11.649851538260181 80 85 125
4.157923134728713 1.1883499649574814 11.438774732475668 99 119 154
-1.3674860873514407 -3.5718591426438397 11.541016698307995 110 122 162
-2.4759972781942245 -1.6873662532133433 10.681499378271864 115 129 166
-1.4046724731398574 0.7192205157182157 10.347252029527866 97 111 148
1.824865021275394 -0.03478333784202538 11.239823116134485 102 107 145
-2.1814392714014983 -1.7803922813455013 10.800655930849206 119 112 128
-3.0756341519179067 -0.30659809237913976 10.139711538577323 93 99 133
-1.3781303409270635 -0.848500256489358 10.719359241277738 112 122 157
-1.5073605757625108 2.2497895026756054 10.076512551260855 103 116 151
-3.2454537238845513 -0.4996899415504709 10.161166913004763 75 81 115
-3.8073718543167128 1.5517552825382548 9.761179233606724 35 46 76
-4.825180843670914 0.2091532371729856 9.64110637618972 49 58 87
-4.954402749330529 -0.4039650490177097 9.73442741294995 114 125 170
4.544147510665442 -0.21646024187471688 12.10838377756553 32 43 73
2.2589855079250443 -3.12529918682181 12.619798305710688 104 119 158
0.6603835339211981 1.6887018557195927 10.527675091999447 28 30 42
4.912024931416823 -2.655552311571039 13.316331941633898 87 84 105
-1.4941264473880123 -0.002627346622990582 10.469610096570683 102 113 145
-3.3508015502719415 -1.9529988519740302 10.55422778493101 67 82 121
-3.2898244048237966 -0.21995272378938688 10.080745391238741 61 73 111
-5.024632160327747 2.058209088378479 9.284192646045867 78 93 126
-2.2286599816894253 -0.13560386730190024 10.308689596924793 123 137 182
3.988387668475843 1.257280156739495 11.4239936954456 82 90 126
-1.8818511182890207 -2.2510273583267595 10.970454960888597 114 128 167
-4.003019720891697 2.4439950810406215 9.470163913743368 89 99 126
3.4267875404441006 -1.1092309244548613 12.016005640705819 84 89 127
5.4248021039709045 -3.1128752737423295 13.503639311407046 16 34 56
-1.9621310556316314 -1.974796107340556 10.857274415491828 78 87 128
-2.345639101967697 0.7172585309227684 10.138297448094674 113 131 169
-4.4420070027647895 -1.8076025865474177 10.304103552549483 57 79 128
-0.6087865884222319 -2.4012785562554178 11.365396939811 123 135 177
2.0571087506762065 1.0969019725965374 11.03542705934287 73 79 115
1.6279194067949538 -2.129349461578227 11.927412511412 132 144 184
-0.32990375083416545 -3.351094673047772 11.921574449414504 73 90 142
0.44848025959689247 0.1954649466528929 9.367688652400757 78 53 59
-3.9834503903141574 -2.077436637043266 10.400410533176112 119 125 161
-0.13087856912095852 -1.724031881781869 11.223158156911587 132 128 116
-3.9913165194682834 -2.1261378881829796 10.409249064191174 124 139 182
-2.226629889743616 -2.396901368434867 10.928447379910509 126 143 189
0.3894110969617602 2.346315016468696 10.487140789920412 70 74 103
0.34144838976432434 0.9505859402544331 10.678632350653913 39 37 48
-1.6645044193205383 -0.07255574757535532 10.422223105521443 75 85 121
2.923534702869443 2.032976262994412 11.141366465396045 41 50 83
1.5260025582499732 2.4756193064558287 10.728605870479557 54 60 92
-1.9406016001111992 -1.926394531077731 10.909545948593774 87 102 143
-3.9839603034148205 -0.3801478289271377 9.939561603324544 105 119 158
-3.233451987564586 -3.0530767700370407 10.883379555752056 82 92 128
-1.597793967015993 -2.634731041933885 11.233844365910462 117 109 133
-4.401696451055369 2.280441868361092 9.398606782567425 76 89 123
-4.025191322055672 1.2954968916038723 9.72980166343787 37 51 80
5.11725852867295 1.3198212125994166 11.681409446374042 91 106 139
-2.6877693764888204 0.5257329852655289 10.072860740970944 113 125 167
-2.278151779755824 0.42887767218745987 10.181361200853974 56 65 96
-2.7016188594662833 1.8843961912863183 9.836227345326686 89 97 134
2.31308180390082 -1.7551762451076083 11.965444244419594 88 82 116
2.3907204123611745 2.3209163731681133 11.01008847304938 88 101 135
1.7353780553364104 1.9208615475199893 10.791191453393134 107 126 158
2.7160085674458676 -2.5279365902870334 12.436163947959644 129 143 188
5.162802329905229 1.212906559117977 11.411866361729144 66 80 107
5.173626247188876 1.3195546040073323 11.020279671411735 74 91 121
5.148042559794986 1.994035821872259 11.590482939432261 58 65 94
0.800061327186069 0.18462315696007137 9.465676866444598 58 46 50
2.4644460529353904 1.076963195051281 11.083542005869806 62 70 106
5.456391564544792 -2.7662209491995062 13.076447666036394 39 24 29
2.385729369311593 -1.488347264570108 11.944022794101517 71 86 127
-0.6007955084505022 -2.0840359358317797 11.236483691672312 37 37 49
-2.035894805522084 -2.3442515378962856 10.932338090175188 120 135 176
3.8041478691150226 -1.44247944965141 12.322759676047978 97 110 145
-1.3550170770235448 -1.566364580786041 10.881479718265506 121 139 185
-2.3035748511068177 2.537624535715919 9.898302144893988 62 63 91
-4.434315017643028 -0.3146769364845338 9.83494208425159 102 115 150
-3.2607274340463435 1.0391661448672733 9.866592647226652 92 98 130
-4.334671796824648 0.12880624793657464 9.762800561115947 114 127 171
2.9455626181327936 1.779791551350498 11.203667144819512 34 46 68
-4.598186578614923 0.2024149055972417 9.68938448864825 110 126 160
-0.12805764250507087 -2.196098046707592 11.35898968763895 37 28 47
0.6867769113149569 -1.8403718890366105 11.561945955478942 115 123 162
1.4532444222336036 -1.3973497568000575 11.59498545382099 122 137 180
2.1165771298736153 1.9929065720320327 10.893672432395011 111 129 165
0.8101557418498032 -3.1901308955317935 12.111041443377141 113 127 164
4.760882512800424 -2.318071670451333 13.146533390449848 23 33 60
-1.9829748602733528 -2.0309737643817014 10.88313799492776 117 121 150
0.11311605507959531 -1.6609107153941334 11.284059416275573 50 48 49
-4.604265748960658 2.0865329389915 9.384226210275065 79 91 129
4.130910794411113 -0.12180945172060227 11.815229009411892 74 83 122
4.754136443243797 -1.7599316380830086 12.8395455589552 129 150 197
-4.198111580386825 -0.8984899349253441 10.146486411448702 14 20 32
-3.988010992334606 0.9965242976181625 9.771196345104576 48 60 84
-3.7262696711283856 -2.7268014302311343 10.644165143326688 117 130 172
-4.466333642237732 -1.4668547225246678 10.192366351103717 128 135 177
-1.9378104101967242 -2.0409954601809344 10.901603711761451 115 114 145
-2.664033581240628 -3.9084578146684374 11.324582715097685 115 108 98
4.234725805798272 2.0278937672734445 11.450673111044102 84 98 135
-4.916547529651326 1.3836751202386823 9.388117156936403 86 99 134
3.866713517916268 -1.8384786330117426 12.464055835497026 35 37 60
-2.687732849012627 1.7811572104446676 9.854007465277629 107 125 163
-1.4243101418327813 -3.044600066460552 11.34717110501812 102 114 152
-1.6351507326262027 0.4480745787631528 10.33809668112129 43 49 81
2.84595320854942 -1.3506283498214042 12.029502237292967 64 73 114
4.550303042999962 -0.8883121915029201 12.311131217571374 112 127 168
-0.6194124129854589 -2.968648510502459 11.539956290557008 128 141 185
-0.17057655090499763 -3.7628188967402028 11.996369485082434 94 106 148
-4.293875129545486 1.0517843171276533 9.711316365823022 59 71 111
-4.240835055230712 -1.6211631010723586 10.309758502326778 58 80 130
3.152303282490356 1.1518677702903257 11.130456320520128 116 135 175
4.724050489320049 1.8315600914053198 11.566184852852597 96 126 164
-4.0771310349427825 1.1711788575144488 9.745951827844944 122 145 189
-1.7169231858986203 0.4599452709546201 10.314260344826682 106 120 157
-2.278107631114473 -0.39141037033307835 10.361030601520373 124 141 185
-1.1549499951979418 -1.1153425219242372 10.808277386798407 106 98 96
2.372063710889211 -1.756164665358412 12.006658704665012 95 98 133
-4.328894609465885 0.20353791368164087 9.757702843276546 55 60 90
-0.8998637336415134 -2.1623564696237527 11.15883774382781 133 110 154
-0.9854272434304114 -3.6539130620404605 11.731329910350023 73 60 70
1.2779136898428405 1.2770891327098512 10.895762908298911 42 52 87
-2.2847903031844647 1.385677875219639 9.992730650202079 90 100 136
-3.3112774629193598 -0.9762097593972252 10.30086328040891 62 74 112
-0.5328791921072236 -2.2080615292085866 11.195394759411661 127 110 146
1.4877799884417855 -2.5073129017715963 12.16496654817343 137 154 200
3.145080529188015 1.8287571874195472 11.106555888543474 59 65 101
-0.9483749945946472 -2.237275740459504 11.207455620155065 96 81 114
4.015745995159074 2.2933128382122385 11.306167378696752 74 85 117
4.806511813181564 1.1941332816242107 11.483355846251984 78 90 128
3.9490873442049863 -0.19019868050435945 11.816656415364582 82 88 124
2.3484099369318114 -0.40714337661170846 11.505223851437405 71 83 125
-1.9652792402001844 -0.5256087429649099 10.597141485726546 41 45 70
-3.198153488269653 -0.44847508650228834 10.184728551813349 90 96 130
1.9114773494562216 -0.03155804662854916 11.228270447845535 118 131 173
2.9298995037346844 1.3231270339795949 11.258190191643424 26 35 50
-0.08108971669247769 -1.9739204078530217 11.360848448659063 158 146 122
-4.218723471589485 -0.23374115390302866 9.904167441264219 106 121 162
-1.576019418721116 -2.3768187035604473 11.095338124199495 116 129 173
-4.17741778865927 -2.2571542528965742 10.402911267876712 78 87 126
3.563192603539815 2.38599719787071 11.173549221520076 51 58 84
-3.163296837952203 -0.15175323887071168 10.097162601888341 129 130 134
-6.978148495549961 -2.857456002908022 16.516001152975555 61 83 133
-2.6421624255885114 -1.1425423084923385 10.474664943039128 90 85 117
1.901636150448938 2.3845960738376615 10.825784068639502 62 70 107
-0.026951625899460045 -1.9322915090155546 11.311630055960704 150 148 153
-5.001621652776643 -1.062192016421602 9.880975640656002 84 80 113
0.7970268588410563 2.2229320541783046 10.226738699185956 100 97 88
2.5080153837247723 2.17113469905816 11.000548953507836 58 65 94
-3.3130597634564154 -2.0068449310543692 10.542441551861232 106 116 152
-2.170358614913625 1.1255979076647158 10.168172423859515 122 136 171
-1.397717378626057 0.6853328049689783 10.334402980194543 93 108 141
2.379557374198001 -3.3166128439992426 12.670255329758342 35 27 42
-3.071646321775507 -3.136584736513988 10.918210887375006 78 73 103
3.466457928797148 -0.6698743175113194 11.895265859425367 93 97 132
1.108917541556311 -1.447047872014397 11.5459455165193 129 144 185
4.348478105647562 -2.6055606194897676 12.98290884039201 69 60 61
-4.570015720692618 -2.7772569370709714 10.446445462148318 77 95 135
-4.376803515596676 -2.7591416582295856 10.48792640432374 107 127 162
-4.018707527204877 -0.3249836273849831 9.930617645633358 124 136 178
2.2052845463138513 2.4057720195089787 10.989591084386404 96 110 147
-0.34547992489660684 -0.8920898491552954 11.049628778297746 127 146 186
5.6335302182694535 -2.6047244560953557 12.943354326348464 94 112 148
0.5911477429893507 1.3087673904610209 10.677253450798768 34 33 47
0.7190476285448154 1.5244341184813166 10.492299189469161 57 62 84
3.5211009959386654 1.066165369595352 11.484386795867962 91 106 139
-1.9829110561243388 -3.867073682767867 11.603768608432743 141 157 208
-4.569045432080429 1.2902396089642276 9.513526429944617 86 102 138
-2.6895590568441543 -3.7085197706677264 11.248500230033391 122 117 124
4.176965178692456 0.6959306391522717 11.629522795265515 101 115 150
1.6042300019393243 -1.7961989350283782 11.787284785373044 82 95 139
0.5907647053832776 1.9861042594503302 10.55502831478387 59 57 79
4.637828230348604 -0.04749940416594826 12.059733947454847 29 34 54
-1.6209223062669003 -1.1256075457005807 10.807441050833322 125 144 187
-4.573623159756726 1.52858556852671 9.460013215900862 86 99 134
-2.6121350996772574 2.5362577015722847 9.789508525590847 55 61 85
4.160759685661963 0.9431486944122413 11.483498288975259 55 62 104
-1.872268987310735 -2.369875614584256 11.002624225607102 101 108 154
1.6182520090135066 2.210657612934727 10.743537615843609 114 119 149
1.7610022004598118 1.0857157821578682 10.855736000549319 94 107 142
-4.9616583560136664 1.5295587115951976 9.377745043580777 81 95 130
2.2048466617789564 -2.0205877100801946 12.07188187869863 88 96 133
2.7332200893389786 1.4923182846858458 11.266772468712562 30 32 53
2.6089058225228796 -1.5767691968098085 11.997560608757647 127 144 188
-2.623922345404447 -3.870349624123339 11.31259002940891 128 122 134
-4.094668347274205 1.1740181658442568 9.738186910351292 127 148 195
3.547227767382322 1.1872027835424825 11.353001257533487 102 122 159
3.1343256697538453 2.2661937389186533 11.090868823933661 101 100 131
3.717745058515006 0.9021462178712124 11.368951434474463 41 37 62
-1.8998038459229802 1.3122845351305854 10.22591978760756 126 144 190
-0.40214976879404096 -1.0223648562742242 11.112701262687096 121 134 178
-1.5472147777179226 -0.0009910442126377114 10.44100180304373 120 133 175
-0.6470831352914851 -3.661239111878019 11.8302162288543 119 133 178
2.8109940413693515 1.2118173776848165 11.228363367984269 25 24 42
2.979823987993165 -3.0610164144269225 12.813123650115829 84 80 103
-0.10792544257227014 0.06879383259898933 9.35338219806847 119 97 109
-0.31271892127557677 -2.277306478039012 11.360035807135173 99 86 114
3.7571716980713896 -2.7968100644989846 12.909699576301591 90 104 139
-2.79879806403973 -2.5031640848424384 10.825355939243718 79 84 122
-0.79747816055011 -1.2162156409042022 10.879702240690134 112 103 98
-2.425491526944688 1.5531420991728697 9.985524473615367 56 61 90
-2.810211956517221 0.5207350032807047 10.017235747258667 97 110 144
-0.922999623026679 -1.4914592235941009 10.839228548804554 55 36 42
-2.6622430973755655 -0.02275521904453136 10.202459304751734 136 138 150
-3.6493410841189067 0.3519692253648855 9.935060349628637 67 80 122
3.947173289128519 -2.2291974599414823 12.602449861972522 87 110 142
4.925138931604363 0.6459301796263655 11.743975587236365 69 75 111
-3.302478687836122 -0.6495187437910613 10.17247009851745 55 71 105
-0.47381665227665876 -0.8964331157387229 11.003699508221182 97 106 145
1.8618060608195144 1.7391837952647036 10.90789542413037 97 110 144
2.297666436005482 2.027358759623082 10.838932122114535 83 96 128
4.038359882653399 -2.4099494101529566 12.780987178544136 100 114 151
-4.450228576867589 -0.40771913485821165 9.84882280864201 102 116 153
0.7133717679084428 -1.1698036821787643 11.321715176448153 45 43 54
-0.9621487202585941 -1.9712912276411878 11.117080269474467 71 58 84
-3.2503345412351328 2.510145972142599 9.595802182309733 56 60 87
2.773228665661765 -1.018236934093584 11.81896236589597 132 146 185
1.6463853789704384 2.310248286489132 10.723179083949026 60 63 96
-2.7181844284251184 -0.9320058678944027 10.4102924171655 107 119 159
-1.3718607215491176 0.8255368902508506 10.29976513885173 77 84 113
-0.830611815818759 2.050289270375768 10.21752466351069 76 89 121
-2.271215722132643 1.7054276461513085 9.959942586794876 116 129 164
2.258534483849236 -1.3555736819685373 11.799395785677865 87 100 134
-4.0246285429923425 1.6156582824411954 9.667449209137912 31 45 71
3.010264573076909 -2.564398004368741 12.685529767422198 71 87 139
-4.36116362766728 -2.2787296747905845 10.340978464727662 112 129 172
1.3910882461358596 -1.2225378169200636 11.57192434497975 120 129 160
-1.6529837982847027 -2.213290694416641 11.055500468122167 137 154 200
4.8192552187619295 -0.7006595425629711 12.302722320837187 108 121 153
1.8212700239391995 0.07417733358997254 11.219200655530894 90 98 137
3.869234399109195 2.393823228119617 11.218555862786813 48 59 89
0.39922792985377603 -1.0701238223169947 11.125113805644572 105 100 94
0.04556451423710819 -1.5085566201453908 11.20643391182938 41 34 41
0.5811609266773169 -0.8262030858573172 11.154743855220397 72 71 105
-1.9907099081831054 2.193328278162654 9.968486573791479 101 112 144
3.5830927375494697 2.4090433723879134 11.139631792102003 98 118 151
-3.083100576192842 -2.0476499093614944 10.637884010047676 89 97 133
-3.7368502323998367 -2.2363495890735767 10.496640958216007 115 128 172
2.8250486018065857 0.9227713229407317 11.200849185616836 104 122 160
-2.3316430363795 0.9996685677970747 10.071739918583722 96 109 143
3.6219055771892226 0.7423618553542756 11.571988420635414 109 126 170
3.4165420396287827 -0.6747758452011556 11.796751886394782 96 100 135
-2.400230164265973 1.182851443293866 10.002860711925932 61 66 98
1.5464207664699674 2.484220099599337 10.713075438572103 107 117 153
4.842028527580548 -1.8400136838366477 12.87876326269917 82 107 137
5.203185827850129 1.2661133758661518 11.574695065590259 48 53 75
3.2588864621104503 -1.0003956899010387 11.955332209397437 127 145 195
-3.500101079314894 -2.063103357679217 10.511240230980803 84 95 140
-3.4405592041412136 2.125877580507757 9.641379360195822 105 119 156
-4.956950765485971 0.5948169329076873 9.548134339475418 84 97 131
-0.770617978074353 -1.0842135513271138 10.831583878479652 92 97 127
-3.78687046595738 -0.5893278320919625 10.15388055721055 128 142 187
3.4968730870799822 -2.6392193420208363 12.78185914699952 117 122 144
4.275010637839279 0.9852624319727185 11.55109878973075 109 125 161
4.921226350861898 -0.33927195375768515 12.15939729305971 112 129 173
-1.490608005498986 0.7497266048439526 10.307002049082397 61 43 55
-3.664578450544425 -0.5346647438016324 10.083825633973822 116 112 135
-4.04849745351674 -2.6659322437399324 10.537543003001979 119 133 180
4.389364660905461 -2.469491204183765 13.014623707160272 68 62 74
-3.8716469025960656 -3.3486532683744263 10.880635590541452 128 140 188
0.4779594080929763 -3.313814688354871 12.056878638145202 66 54 58
-2.075574486914495 1.0790564001555272 10.231425028715677 31 39 58
-2.0121786970786593 -0.11026710978455292 10.343074467535946 70 79 120
2.7562460766667134 -1.654829524578528 12.09598261397989 109 123 160
-2.4015072611812087 -1.3542016067043225 10.55369359220607 82 94 136
2.9490790427973828 0.8532808452988658 11.254068688399068 113 128 171
-1.54271266897171 -2.7300643764905135 11.237184170453382 116 106 130
4.101510601908075 1.2448828525746267 11.47099578614213 102 120 160
-0.8594743163167584 0.8070863832219695 10.454311272127377 27 24 35
5.1455868544745345 -1.5387922137230816 12.73483219749708 76 81 121
-1.9193396835233278 -2.465539925066113 11.014718447677637 113 120 162
2.4285956425160657 1.46487032339515 10.996175844448429 110 127 170
4.635927004545208 -2.1025862384229383 12.9401055873796 25 22 51
3.748374593400282 1.7672712313733197 11.228376709968929 22 28 44
2.226605427145085 -2.7264802205202776 12.374499252639902 105 99 101
0.7569132146330986 -3.1315056322768506 12.081926571179313 58 71 105
-1.9159999724253076 -0.16950230815594433 10.399251460088454 108 122 161
1.8668165691408463 -2.5869413853141325 12.154657609713668 80 85 123
-2.5476899810766525 -1.6404523300341438 10.634711052511333 115 128 172
2.6012605756397984 0.43155232095964025 11.282045630950654 118 135 178
5.387624488250961 -0.7430603948150677 11.647966692793041 108 122 157
-2.277331806849423 -0.9028086857892396 10.443897959861125 131 148 192
-4.106366186870437 -2.016201138634919 10.301438492878992 114 110 137
1.3152579555986599 2.0379914883911416 10.794955181540647 118 137 206
5.4313207071536125 -2.2074530320885417 13.262267418466832 81 77 74
3.7490125132255265 2.183600081684299 11.145183333309182 19 27 40
-4.0579016226758515 -0.15805813523509996 9.878748102359483 71 74 105
2.091156429353667 1.8078501895560612 10.87563357178816 106 128 169
-2.796227844893299 -1.5259000816750217 10.59986184965589 90 85 117
0.3030785714940978 1.674226814023261 10.47805001306165 40 42 57
-1.7252022886072331 2.4593145305821404 10.001104296825362 56 65 96
1.1946834368317973 -1.3041062269850223 11.497004974980358 132 149 195
5.479823912857161 -2.5116026412585075 13.40854419909904 66 74 110
0.7229127855657559 -3.1494094663327603 12.05736254256976 86 83 90
3.8400288415292714 -3.0119962343392306 13.064735271409301 35 26 43
-2.216869282021052 -0.3569747023127784 10.323148068478437 128 124 147
3.6995617408729737 -2.744270036266886 12.86715859372139 56 49 56
3.4416528552897856 -1.6344901725824335 12.289374636011589 117 131 170
-4.571671768248313 -2.882579758239232 10.45835286002634 69 84 123
1.2620340118864923 -2.1838810709992518 12.009494663806622 153 174 221
-4.056926773060279 -2.7785267751753797 10.578828736846447 105 124 166
-1.882564499162488 1.3031505270154544 10.216703420819652 126 144 190
-4.334684603994692 -0.609988815917766 9.936715972421135 145 158 202
-2.0478618373738353 -0.14084030019744873 10.402354029813296 114 129 170
-3.405339990220072 -3.7297064003533174 11.042767221697886 54 66 104
-4.29649691572635 -1.7713443309982635 10.329043892095084 58 81 133
4.141516627417729 2.195140851299241 11.37737901429194 80 91 123
-4.509088566204432 0.31617536958143544 9.679297664759895 52 62 89
-0.0020015715882207145 -0.7822673435046243 11.184510161385138 123 141 179
4.443119925519837 -0.6166992021475258 12.153471135340236 110 102 126
-4.989789736953624 1.1057097323408092 9.449232386187894 82 95 130
2.735256494868756 2.185439927149293 11.113873776483828 24 32 45
3.023462531091793 -0.6841147833495695 11.890118371169045 108 129 172
2.2020524746176937 -1.711163525579705 11.928074525781325 94 103 142
-5.428228395485409 -2.438139210492636 10.123629309856017 101 103 141
-3.8345339981076023 -0.7467630981449102 10.195972394082784 19 21 33
-2.6392938194926696 -3.5285429286597685 11.174535047401456 127 131 178
3.7876921275694326 -0.981371234042782 12.153136753289097 98 108 144
2.4060240767833143 -2.1478959473852375 12.222557234815588 73 82 123
-3.6284146970554314 0.28272724503761426 9.914985264384258 49 59 95
0.128148830837918 -1.7220774468938855 11.309828515851326 110 105 101
-2.228663770472072 -0.30632305127336357 10.335794984775958 85 72 90
0.38777225663934145 1.717759883637474 10.554039266979215 78 89 117
-4.18657114558673 -2.2280612019436727 10.365907345661098 104 123 163
1.285850688204813 0.7867781670755651 10.905458653077988 107 123 159
-0.8636692150114874 -3.3004100635761238 11.614890710382685 122 126 151
-4.763252205646346 1.7573843057582457 9.364633736250234 59 62 95
-4.303010368695367 -2.4504577982333653 10.410809275662787 107 121 156
-0.6855157965830893 -1.8430136939116823 11.160573858540403 44 53 96
-0.9586294543519377 -2.035714049502006 11.11216556343498 119 98 137
-0.42865238459319527 -3.206934410755318 11.84977927773526 114 127 179
1.4939466495669083 -3.0316953669303124 12.380459514789802 119 132 174
3.8291444302904476 -2.979514672494984 12.783613073563743 53 40 47
-0.9895290904294253 -1.5939022136283847 10.857385262156212 60 51 56
-1.2354329701472722 2.204206550568369 9.99012903810644 80 81 85
3.0696435359335337 1.3792186375676212 11.128725428606062 100 95 118
-2.8968336948890774 -0.4466613517479456 7.446628945496293 145 162 206
-2.074369760064057 -1.433661800662287 10.840660534591242 80 101 158
1.7925895767128182 -0.6678558935040145 11.470391773722792 120 137 181
-3.83780465115203 -0.30437654890798627 9.970658223560045 69 78 119
-2.7866582558249706 -0.1871808539371276 10.193333474432842 86 89 122
-1.010739780442672 -1.8525067927199452 11.113250352430242 94 93 124
1.8502352982990378 1.3659277742764742 10.999558715380259 98 111 143
-1.9129580000503936 -0.37020550409753195 10.589126558705443 149 166 210
-3.9484759183409466 -0.5528677312548614 9.958261331915809 112 106 134
3.6279442820888317 0.7055580334380567 11.51698993375852 106 123 166
-4.705117683544357 0.43103820512538693 9.627246139377826 86 99 133
-1.7716544277301796 -1.5199919349307722 10.949472578453634 18 21 36
-0.8308947745406794 -3.4513957889475795 11.706128312684088 110 122 164
0.832396025137311 -3.688618079699474 12.155766908638425 70 54 65
2.217977939018622 -0.95646469495163 11.624871634273827 76 75 109
-3.365649963700512 -3.829300921191148 11.101997457172272 76 59 65
5.125022186887145 1.0927452510809974 11.625271609739034 39 46 72
-4.614365217500737 0.3223191643328385 9.617358407267648 58 64 96
2.136500662893208 0.3296462402915045 11.260963569058996 80 83 114
3.742397069263465 2.2507190100272205 11.175138399612848 33 33 59
4.684432726744026 -1.1194357709900196 12.399110836738526 91 106 147
2.6148179986525144 1.2984700565949852 11.150922753225661 21 23 35
3.252605890737013 2.429350979486617 11.122291584550247 59 67 103
2.373426372956519 0.27196185381433824 11.338275308076794 118 136 174
1.9578326258470002 2.384131712105528 10.736769123503798 78 89 121
0.7154947492833169 -2.5460632418266735 11.848996309638004 77 88 133
-0.14640270697779406 -3.854028677931398 12.072118748456093 61 65 102
1.8283794296366975 -0.605029586002667 11.423749307283675 85 97 137
-2.0264714000467343 -0.07581438240913448 10.36602099683829 84 92 131
2.292927144899163 -2.62668101766961 12.360885969184743 63 46 64
-1.242121129374972 -1.6249936322876395 10.98026663043356 110 123 157
-0.6689150888155351 -2.26138178351215 11.185915259107619 149 163 202
2.049741264193974 2.310475458278508 10.903515849941192 86 99 133
-4.915631434896213 0.9113397182842187 9.481778306124534 91 106 139
1.386072918424784 2.1420153115156624 10.806725218709888 24 36 58
-4.552465255396665 0.6691525586716852 9.62233602870095 115 133 181
2.992410055256468 -1.1666288945683443 11.943004879121952 95 97 120
-0.8092671936622103 -1.289483701141293 10.898900018828384 75 63 65
1.866814801172298 1.6246770392798398 10.951145946229452 114 134 171
2.8444950606666053 1.2314891771221286 11.290737798967138 24 28 39
2.793415358925801 2.6118682067149406 11.067656432948375 80 90 125
-1.8267705489712864 1.52858666431889 10.187559584822184 123 140 209
-4.193017429266178 -0.3632724016559035 9.902321623003711 108 122 159
-1.9600090330847044 -0.5373634926588519 10.603556588421503 35 39 64
3.763188136498252 2.4458752739820575 11.21968322100256 40 40 64
1.581591290705343 -3.205864159155623 12.447348839094891 113 105 129
-0.8754348288773163 -3.631785105444699 11.751458998463322 82 73 74
-4.117698587365687 -2.9844990745595945 10.678393056203111 78 74 88
-3.917050825452121 -2.0895832269368446 10.415263226398377 101 116 159
-1.5886339013896913 2.1344406252381236 10.013677939358969 89 62 69
-1.8082045425348467 1.1689963721078245 10.233065193897952 42 54 80
-4.203100328795862 0.4103460210061851 9.741803035805928 102 114 156
-5.124829630760946 -2.5396198313411844 10.177648330348594 81 81 109
3.6220798930806857 -2.8103012193032075 12.87325369031296 97 111 140
-0.5982052115468932 -1.5189373863259816 10.855255693682032 115 110 117
-4.008986997611727 -0.5432508448328531 9.945820268073419 104 89 108
-2.033905694062137 0.5170820952911985 10.248019201441787 99 121 162
4.7009140604642665 -1.9941781873910676 12.93061662605282 24 22 46
1.3100903219477096 -2.0333856811846367 11.961241281036775 107 100 118
-3.516724236276733 0.9495827957459587 9.764253124908445 119 138 180
1.6331675238767833 -0.18931985018075118 11.23266725055134 93 104 149
-2.837497158944783 -1.0194464551420162 10.386189070106594 89 84 114
4.769906886917397 -0.5460505590806887 12.332490585436037 19 24 43
1.1541266892989765 -1.4164626561673401 11.52856845649627 127 145 183
-1.0077613992051908 -1.9311770685909881 11.117009770799822 103 109 145
3.147899206648502 -0.9923762566662658 11.915903715800853 124 142 188
4.597925552947357 1.610971975886916 11.580163925798589 41 43 66
-1.8905337644497804 -2.6564170834689405 11.200293518881573 84 107 161
1.232167101656075 -1.3833988052668345 11.558548868454668 129 146 192
0.4539982495768253 -3.2889966360230125 12.046820514509387 112 103 104
-0.5146587472692031 -1.463020449637297 10.94114468406034 108 101 109
-3.7270213101312217 -2.1170960943327053 10.510136813308558 99 122 164
-1.7081089415026964 0.6883824912454255 10.266639381065778 107 120 155
-4.6201778172264785 0.7801843115404535 9.580081878332999 118 135 179
-3.807685636864561 -1.9634265244368612 10.406933544909014 116 112 135
-0.3755881779250532 -2.0542543706356287 11.265333943907127 99 99 101
2.750031406729866 -0.673396783190471 11.777533799608374 37 48 78
-4.346013676244755 -0.3197850598069576 9.857706638487738 48 65 108
2.6230100057202415 2.60523858072074 10.92990076221107 103 119 153
-2.826147026121976 -3.845738612215424 11.23473654792252 69 49 58
3.1190085556560385 1.6146197590180462 11.145070136405435 111 125 162
1.704479094010328 1.571957136797601 10.870612834483461 68 73 103
-2.180352793154909 -0.15645785978143 10.36221662705404 112 121 160
1.2503362641458025 -0.4672043732529132 11.303825513420268 148 166 212
-2.861623010242954 1.5502430081807972 9.829558069238344 119 133 172
4.277085695866969 1.2861158454344745 11.5353554808782 85 100 133
-0.8062071220337301 -1.3101057759582555 10.883836703250608 78 70 67
-5.205887562990502 -0.3814175744953858 9.634760676394857 121 119 124
-3.89066110418711 -0.39851770135082626 10.005560741624866 110 122 162
2.531584752135659 -1.1697394781357346 11.78683751393335 123 142 185
0.30352722315525005 2.0623046245799777 10.413466925665656 44 41 60
-4.0978818178806256 -1.7330422806590877 10.373554954242866 60 90 142
4.627426118211573 0.10580687498249912 11.998128598779239 23 28 47
0.3632444992484594 1.8508259226165074 10.561941115711193 64 70 94
-1.7479556419510112 -1.014499794316706 10.72985326991876 152 165 207
5.191441587104903 1.697051442308344 11.645349336313897 69 80 112
4.976360765122738 1.1408242149723338 11.626006636939136 48 54 78
3.1594212006150046 -0.5917495588829351 11.738904405491773 121 142 187
-2.951293846515544 1.5788116934469945 9.825784498598479 93 106 140
-2.7354680880807987 -2.6241991419079964 10.856380381001658 93 98 138
-0.662881653731762 -2.2198570565590234 11.170627917043145 142 160 196
-0.01338732698180137 -2.0653454599375847 11.372787812150127 77 61 62
4.51286350003578 1.103783459700973 11.541381622144774 45 52 96
3.5555304913919845 0.5346665188608498 11.533023139608213 106 116 151
1.8689203515736914 -2.1929238947636898 12.014096312414111 91 86 118
0.5181154066848151 2.361219739284847 10.570286108576973 59 61 84
1.2556467152560353 -0.8391519179498478 11.44991384532197 137 155 201
0.29847187529008673 -1.3664656548626188 11.068749796770838 109 106 117
-2.7032162818702044 -1.3435247072646195 10.528378780025484 88 84 117
-3.016935670401706 0.14747437883973005 9.973967121915177 116 129 173
0.9195987748964343 -3.0044546333096163 12.02920468493058 124 139 182
-2.143920293259164 2.0658182457612866 9.961682437408808 123 131 170
1.2648563914680426 -1.9505200341606432 11.80410211358977 84 78 112
-4.316027756212463 -0.8094973756775788 10.047002744428271 20 22 37
-4.037445349571568 1.928954905523594 9.639781465666195 122 137 204
4.559796697862829 -0.9918023922981497 12.30096777183557 72 84 124
1.00310728756131 -1.5577922455291466 11.543514314473608 94 108 147
-2.0877527722903815 1.061309230183653 10.24765910565025 40 46 68
-1.7864151675612128 1.3209874347485189 10.273560718085296 39 50 78
-4.710033368653556 -3.6220346526751723 10.65901947334404 102 118 152
-1.817109265051528 -3.4790653902882913 11.505346206626594 112 124 174
-2.76064300500572 -1.3724161023788273 10.505531424889712 82 87 125
-1.986286650397415 2.5645721810152082 9.976450087810617 57 61 86
4.15606499329854 2.1301493493663837 11.34265107066027 74 80 114
0.02934179338478964 -0.557732945826212 11.049655384437951 135 153 199
-3.2866585592579236 -1.086595167088188 10.309958765084614 107 111 149
-4.778871197812048 0.16377816390336075 9.675512256488322 81 93 133
-1.7618001561827488 -1.491944589405678 10.940490805854425 22 25 44
0.5952378580388726 1.5648416455494156 10.625822398033515 41 39 60
-1.725100636872459 -2.10970031107746 10.96964893313218 71 80 121
2.0293325627712107 1.557414617936834 11.007456887966134 99 109 145
-4.62467391445809 1.123032962478612 9.490046869121668 92 107 140
-3.3040094007535328 -3.022687724712189 10.838669743817828 72 81 114
4.653694577521485 -0.30967932685256133 12.166518553557637 32 37 66
-3.718962586561354 1.9097633476001152 9.688866661877773 96 84 106
1.2330800188145103 -1.8236802873348015 11.738118706994609 120 138 186
2.272034888719716 -2.1940402477408565 12.17894987151158 73 79 115
-0.14006119400282532 -3.1404642012982724 11.899229742545765 115 131 180
3.6751578706542367 1.3246771186769535 11.374133439261808 81 94 126
-1.5744050100265363 0.02953761747764491 10.4286127171891 119 134 177
-3.287185755941389 1.7646221764059777 9.740994014076419 100 112 150
2.1751849737004187 -1.0820633785917813 11.716397459314168 101 114 149
-1.2238368049442674 -1.4325125331306425 10.911129325540086 78 87 126
-3.310175805887993 -3.0243060581456302 10.848031581927579 73 82 115
0.6888987362719519 -1.7632947613869632 11.506702356665892 116 119 154
4.397302299218841 -2.39205607268581 12.943702212438032 67 81 118
-3.864840839053176 -0.5577430475542834 10.121891707282828 143 161 201
0.5385580827967477 -0.9691427661525199 11.216467586816613 127 114 131
-3.1118103630962577 -3.8048138579808866 11.14079596883251 110 105 109
-4.84914198926258 2.5349094139402726 9.248816040067243 104 92 104
-1.96879049115323 2.121418136238507 9.95388584387611 93 62 68
-3.9543306168091372 1.1584234446608073 9.761960826443254 93 110 138
-1.6561694078028386 2.320353938491969 10.04815418292197 81 87 121
-3.602613767172178 -1.3169618714401201 10.303225300814029 126 143 189
-1.8522288478822393 -0.3934465519336771 10.59230594518232 35 41 67
-2.7666307954143634 -2.201329724317267 10.760781886513096 118 130 172
-0.9370531090733306 -2.1174427180680153 11.117032613575258 97 71 110
-0.36520478360274683 -3.300716771617968 11.928928428133991 85 107 157
4.636705943032479 0.0014434118094132252 11.948834584877066 66 90 118
1.6468509464140084 -2.832665107001115 12.07352813527075 102 115 157
0.5924273821891097 1.6915199552626825 10.599785817478384 39 38 56
-1.9745888348976601 -0.8044806082242163 10.672607800322218 24 31 50
5.001173758527691 2.124795788532847 11.54816005748227 87 106 139
-1.6995125245145006 -0.11855004605381377 10.416558559878027 120 129 168
-0.7326987065778986 -1.3354224676961082 10.878765956236707 106 104 117
-1.6169518565112166 -1.0695035888623987 10.799079819919987 132 147 190
-1.1808225438053117 -1.3101328399414276 10.861811372407185 53 53 79
1.4554375664991346 0.9401575923288606 10.897377206215562 109 127 167
-2.3236367734871366 -1.8879345681130708 10.753742380653403 130 147 193
1.3860302708910004 2.3698455540109773 10.685025792925888 79 84 116
1.3744341181558992 -3.4895727982572025 12.419467432462918 80 88 127
-2.970515092375683 -1.233064313082713 10.398758801962702 87 95 131
-4.579341085800717 1.6265050104939551 9.437080015677635 86 101 134
4.649239254151114 2.292393366858747 11.469340086515512 104 112 149
4.988856095676417 1.811614789012349 11.535789319551194 56 62 96
1.8491448231862677 -1.5151529662935583 11.820273917147254 86 91 133
1.7164081039396601 2.3213567989738704 10.785155229565419 59 63 92
-0.9090303659215939 -1.2154402407019655 10.872995685432617 76 60 63
4.972931982169621 1.4390436425195188 11.540596033812855 41 47 73
2.843927869724147 -3.330944708982152 12.684580602637093 70 58 68
-3.608327261718493 -0.376122291249947 10.046838201487606 118 129 174
-2.4445197122911093 0.10027205666117721 10.208108532049257 131 150 193
-3.40284932331464 -1.0821566473387303 10.309081203295856 108 120 160
-2.2954038686051446 -0.18706547409964136 10.324686962683897 108 122 157
-1.9739626124081096 -1.9907902606969698 10.875514272091646 78 92 131
-1.583936007123221 -2.2929207131324305 11.06787413876243 131 145 190
3.685600574427202 1.3451774778907382 11.339414219123913 55 59 88
2.6416841539816507 2.6325778100283825 10.90750237295877 59 64 93
0.7466321738967168 -2.8515163843912457 11.94950310838641 117 131 168
-1.034492659383613 -3.795151207789553 11.760515423406583 109 122 154
-1.678932521245321 2.1959429823566365 9.984150120547685 103 114 146
0.1593830742949103 -2.70754729427654 11.744141383039683 130 147 190
-4.2697131137964925 -1.555681783143583 10.262554009248365 64 82 130
2.8707773155066576 -0.7361219860336536 11.828385531086202 36 50 79
4.9830855276936274 -1.3835582504521096 12.693959351070518 109 106 125
4.675267182307942 0.9139208436137031 11.821435833897418 80 96 129
1.5483785850209573 0.8495581810466523 10.99974555058996 114 129 172
-2.2595154820233043 -0.7118227168531237 10.459411291710063 105 108 143
1.4033577931636094 -3.4052368337922485 12.43358782584821 96 110 147
-2.2162023205413672 -0.2226889429566884 10.31591489585109 120 133 175
4.551435309796313 1.7126542610915634 11.56183424375683 108 131 173
1.9477736590391115 -2.9441551854763577 12.359537455487002 121 121 129
-1.994428973202349 -0.04529167237998874 10.364314860808244 115 129 168
4.694384920800818 2.0944940398836067 11.52918823263503 40 47 75
2.500322680597473 1.8043822947760353 11.041413953172157 56 65 98
-1.3059480639361958 0.7662804562664697 10.352493046122413 42 43 63
0.1055506949873674 -2.114420292702585 11.377524971265148 62 48 81
0.06100291884485204 -1.6276555881057269 11.312151328989284 126 140 179
4.448687904932774 -4.41765668313233 15.45145751678739 251 253 252
2.27956953120965 -3.058562302285519 12.567724015778264 93 93 91
-0.45720230570852555 0.37136928820550374 9.34556005804189 69 60 51
4.691634620069758 -2.1368956438704 12.997955339157556 91 106 149
4.877180978680074 2.4147811446804885 11.436021007962344 48 53 82
1.2984434863903362 0.7249920148475025 10.945333925970044 115 130 173
-0.23842937888930452 -2.304900788798338 11.2922596194176 84 62 98
-1.1472465340385252 -1.7492601891681234 10.981611641326344 83 92 123
-3.1978922758500925 0.43381493574094715 9.950140203218472 60 69 98
-0.1141126145974699 -2.2352262501132025 11.37149492600409 122 136 175
-3.8252859909486068 0.2447030630675491 9.863703313713994 101 115 152
-4.038449150030019 0.07868741503769063 9.963850679747745 64 71 99
4.072865849635447 -2.9202748166022707 12.880267806732773 22 25 34
-3.9824151433345647 -2.2845174360595215 10.453039263379184 63 74 106
3.6471941008277713 0.8985980914376275 11.412616358156566 57 59 100
