ply
format ascii 1.0
element vertex 1077
property float x
property float y
property float z
property uchar red
property uchar green
property uchar blue
end_header
-0.99694276 0.17126724 -2.8243954 105 78 95
-0.05100185 -0.014075399 0.109112844 120 103 113
-0.80764526 0.22150211 -3.1234748 94 80 105
-1.1341265 0.08734392 -2.702272 124 101 121
-0.78081435 0.0920022 -2.803667 131 90 104
-1.013062 0.07640642 -2.689514 148 123 144
-0.13577066 -0.07115394 0.35644513 78 76 97
-0.2306811 -0.08966556 1.030165 124 110 135
-0.60707235 0.16927412 -3.3751173 164 111 129
-0.88682187 0.2129263 -2.9624438 140 121 141
-0.15843768 -0.045959514 0.5069207 127 99 113
-0.9548419 0.10694108 -2.7599497 95 70 99
-0.06868117 -0.025882069 0.1543917 62 48 63
-0.12160476 -0.05542697 0.31925526 77 58 77
-0.26224926 0.377499 -5.5081577 124 77 85
-0.23743233 -0.08894372 1.096551 129 106 126
-0.33284765 -0.52782845 7.0872273 148 95 115
-0.23072182 -0.08969175 1.0305661 124 110 135
-0.16535638 -0.082544096 0.48971698 108 68 77
-0.7952092 0.24200681 -3.1631618 99 78 97
-0.056217898 -0.050541274 0.104198635 103 99 122
-0.17453115 -0.050915454 0.5985967 69 58 75
-0.54506665 0.4016359 -5.368489 90 49 67
-0.9368053 0.13281684 -2.816808 145 127 149
-0.8595519 0.2185863 -3.0104182 105 79 106
-0.038919814 -0.03217521 0.073995955 69 65 82
-0.23500845 0.034551624 -1.5517713 88 46 50
-0.90700763 0.07148619 -2.6948676 79 59 70
-1.1470592 0.08285329 -2.6976979 148 161 196
-0.22519322 0.09403296 -1.9820358 98 80 70
-1.1355944 0.11414275 -2.7309618 135 111 133
-0.033886287 -0.031852253 0.06247099 68 54 79
-0.27961415 -0.1308513 1.6357293 110 89 104
-0.23138852 -0.10478923 1.0629184 60 21 26
-0.78455526 0.11336083 -2.8796139 141 102 120
-0.97167057 0.18800318 -2.8533955 84 69 90
-0.8552746 0.12784861 -2.866213 145 127 149
-1.2154764 0.019156288 -2.6324046 61 70 75
-0.6955086 0.2636748 -3.5744584 105 76 94
-0.31495717 -0.18576622 2.3521576 96 58 69
-0.7391132 0.25266615 -3.361655 112 86 111
-0.27231148 0.4471164 -6.3947935 134 80 93
-1.340839 0.0607833 -2.716842 142 154 192
-0.6782466 0.22393261 -3.5230803 141 114 131
-1.0005227 0.067368545 -2.6735585 102 78 92
-0.8797653 0.075799 -2.7126753 118 90 102
-1.4063423 0.10484878 -2.7661111 46 61 84
-0.041278597 -0.020686831 0.08389395 120 96 122
-0.204607 -0.07392638 0.8172756 127 74 84
-0.48266158 0.19234045 -3.6928837 143 86 101
-1.3760926 0.1271489 -2.767046 131 139 176
-0.056901757 -0.05321462 0.10336901 74 65 82
-0.13285068 -0.07526873 0.33179656 28 24 25
-0.16650617 -0.047477722 0.55170363 73 56 64
-0.06396144 -0.051791012 0.12380904 58 52 62
-0.28145638 -0.14396471 1.7570698 62 21 25
-1.3842517 0.117995955 -2.7655783 120 128 165
-0.88247466 0.1999842 -2.9629018 140 121 140
-0.93149835 0.09165418 -2.736579 108 86 98
-0.7210538 0.26038706 -3.4444141 106 82 104
-1.2113484 0.1325756 -2.744174 152 164 202
-0.5972359 0.20979446 -3.6742685 136 88 102
-0.20425864 -0.09325437 0.7767573 125 81 98
-0.20055369 0.06180816 -1.224259 61 32 28
-0.6949162 0.094677076 -2.8601315 155 102 122
-1.1500865 0.0916441 -2.707852 147 159 197
-0.0510528 -0.055345938 0.08622358 118 113 136
-0.04897392 -0.055223558 0.08119959 79 66 84
-0.024540432 -0.024940258 0.044599913 125 111 137
-1.3021879 0.12014683 -2.747615 153 165 203
-0.036425397 -0.07032238 0.03490576 32 61 41
-1.3754086 0.11931441 -2.7637494 132 141 182
-0.15102471 -0.08295947 0.39946583 85 53 66
-0.59622616 0.31503424 -4.383154 72 31 45
-0.8730088 0.13989934 -2.87987 127 110 129
-0.037416574 -0.049366303 0.05918045 81 77 102
-1.5473748 0.09708235 -2.814701 174 187 232
-1.4127297 0.06217023 -2.7429888 125 145 182
-0.21243049 -0.077186584 0.86467344 78 55 63
-1.3363764 0.06077499 -2.7153962 142 156 193
-0.8716034 0.20400737 -2.982626 103 78 100
-1.124027 0.086862944 -2.7013686 129 102 117
-0.039771467 -0.029787371 0.077116124 62 50 70
-1.0761998 0.04316185 -2.633669 100 83 99
-0.19204709 -0.035804283 -0.110796 108 66 80
-1.0360355 0.056855306 -2.6537004 107 83 97
-0.28898615 0.15586743 -3.0421126 115 98 90
-0.54861265 0.32479656 -4.741965 132 77 96
-0.7400396 0.19462745 -3.235094 103 88 111
-0.98709285 0.08943567 -2.717263 106 80 93
-0.3172463 0.2825588 -4.5360484 196 184 158
-0.045679413 -0.041278362 0.08496785 63 52 60
-0.6756454 0.26683804 -3.6861048 100 78 99
-0.1650063 -0.06395565 0.5309531 108 79 97
-0.63862777 0.2873463 -3.9664297 128 99 119
-0.7006737 0.2719004 -3.552534 131 112 140
-0.6425219 0.27785304 -3.9079494 145 121 143
-0.19086516 -0.072002046 0.6961487 74 50 66
-0.24857947 -0.13756552 1.663007 119 64 70
-0.2168564 -0.09762927 0.9013093 145 103 117
-0.051162824 -0.021436268 0.108158335 120 102 126
-0.93648124 0.18034098 -2.8809047 96 80 106
-0.58576167 0.10122296 -2.9387193 76 50 59
-0.083648935 -0.064566106 0.16552296 90 81 98
-0.8432863 0.038548645 -2.6072059 144 101 120
-0.0012594736 -0.04252966 -0.00974584 74 60 73
-0.5895952 0.10570065 -2.9668474 144 97 115
-1.037609 0.08698851 -2.7050307 158 133 152
-0.21037671 -0.07094132 0.8490722 73 53 64
-0.52452123 0.17423876 -3.5082595 102 57 62
-0.23183219 -0.1442248 1.8612745 113 70 80
-0.32094973 0.08837787 -2.5046659 68 53 60
-0.9410613 0.14348264 -2.8316102 144 132 152
-0.7301771 0.19097771 -3.2454882 143 120 138
-0.8635783 0.17970008 -2.9673154 83 61 82
-0.15651079 -0.06459968 0.4798271 115 88 105
-0.1867758 -0.060595997 0.6748315 83 60 78
-0.93533486 0.18088111 -2.8825104 88 75 95
-0.12567206 -0.05016083 0.34281495 70 55 74
-0.8517175 0.13455044 -2.8865764 116 92 114
-1.5598255 0.14958104 -2.832654 150 137 129
-0.060007207 -0.036844693 0.1249404 86 74 94
-0.16518635 -0.08172616 0.4917267 96 56 64
-0.20481282 -0.08210787 0.79751664 47 27 29
-0.2009919 -0.08224341 0.7650469 50 27 35
-0.147154 -0.06277349 0.4309873 65 48 54
-1.5010147 0.075801894 -2.7858846 157 169 209
-0.37850824 0.15619828 -3.2917027 67 30 37
-0.28886068 0.21568355 -3.69327 158 139 124
-0.90782315 0.07134329 -2.6943407 76 58 72
-0.7622527 0.17959848 -3.1385918 143 114 134
-1.1371796 0.021672113 -2.6121576 107 95 141
-0.2604941 -0.13651152 1.6147763 40 21 25
-0.8525819 0.082267925 -2.7396562 144 97 115
-0.706592 0.27033404 -3.519536 91 68 97
-1.5365658 0.080986515 -2.8033354 107 120 154
-0.3547555 0.115257226 -2.85218 101 58 77
-0.42157105 0.0689084 -2.5946314 86 41 48
-0.90009737 0.18537898 -2.9261134 92 69 85
-0.18764785 -0.091282606 0.62105334 82 62 61
-0.46069533 0.21138634 -3.8810782 93 54 73
-0.31551513 0.32520857 -5.0280375 45 25 34
-0.17437834 -0.049693312 0.5979184 88 68 77
-0.1174538 -0.050591085 0.30729115 93 77 103
-0.91367316 0.080989346 -2.7169728 87 62 81
-0.6740455 0.1589227 -3.2092192 68 31 39
-0.6192193 0.24789256 -3.8634596 112 71 85
-1.0255722 0.16183127 -2.8008838 98 71 90
-0.2209723 0.033730928 -1.3917114 81 58 66
-0.6088842 0.114331 -3.0144446 146 99 119
-1.4612594 0.18029603 -2.7989163 112 119 173
-0.0775031 -0.031642165 0.17836845 62 52 63
-0.14728633 -0.08402547 0.3741305 95 64 70
-0.23404899 -0.08548454 1.0622227 46 34 56
-0.0039001014 -0.021808956 0.0041258745 111 106 129
-1.4505273 0.12443126 -2.7879553 103 117 152
-1.3242099 0.1170025 -2.7503877 110 122 160
-0.7476453 0.22241157 -3.2911425 136 121 140
-0.032339185 -0.046774056 0.04978675 62 51 65
-0.78251505 0.08942886 -2.7932522 65 44 51
-0.08775336 -0.03021088 0.21152218 72 63 84
-0.33156618 -0.21908554 2.7929118 140 84 95
-1.4868956 0.12557988 -2.8007333 152 166 203
-0.018468976 -0.046268445 0.020771561 102 75 90
-0.08674465 -0.050248303 0.19413148 93 91 113
-0.73408824 0.25988463 -3.3840017 111 80 96
-0.06224395 -0.04940761 0.12140447 120 105 124
-0.028985333 -0.03918632 0.04754118 120 115 138
-0.37578732 0.16010575 -3.3255064 91 46 51
-0.11796576 -0.028022189 0.32176122 69 59 68
-0.38768977 0.12464705 -3.0084686 101 73 88
-0.02750309 -0.02603607 0.05063608 47 38 57
-0.37243807 0.17788284 -3.4975972 182 175 167
-1.4317617 0.15857257 -2.7895641 158 176 214
-0.59155166 0.05009604 -2.6274436 108 57 72
-0.025553107 -0.005259331 0.050345723 129 113 140
-0.8520619 0.082380034 -2.740176 144 97 115
-0.21077304 -0.071206935 0.8522827 77 57 68
-0.31509018 0.19474459 -3.548292 141 121 123
-0.8529884 0.07873198 -2.7289984 113 75 96
-0.90622866 0.058937877 -2.6627288 122 70 83
-0.97059274 0.13393691 -2.7988591 133 108 130
-0.11747831 -0.051870976 0.30603018 113 103 128
-1.0334231 0.12465543 -2.759949 139 118 135
-0.899641 0.18365112 -2.92489 154 135 155
-0.45541382 0.17510895 -3.5388963 139 85 99
-0.88278186 0.19988248 -2.9623702 141 122 141
-0.809473 0.1200406 -2.8820615 153 129 153
0.00015973861 -0.053869233 -0.019713677 110 100 127
-0.90176165 0.07188526 -2.6969745 76 58 70
-0.66601336 0.2736855 -3.756601 143 116 135
-0.086031206 -0.06552154 0.1715096 96 91 114
-0.82196075 0.027922524 -2.5716674 99 61 84
-0.41781935 -0.6980304 9.0810375 55 26 31
-0.72727674 0.10003362 -2.8668568 144 101 118
-0.90338796 0.22978164 -2.9340875 136 121 142
-0.40539747 -0.6727874 8.809755 124 70 83
-1.2142946 0.16246308 -2.7568243 122 132 183
-1.0613713 0.09505479 -2.7145767 133 114 134
-0.30570766 -0.16737832 2.112514 61 49 59
-0.935156 0.16387388 -2.8648682 89 73 99
-0.19037116 -0.09320725 0.6334539 26 20 24
-0.8849088 0.15396215 -2.8973691 137 109 132
-0.7631853 0.1934293 -3.178062 147 133 158
-0.19188331 -0.042811383 -0.0012410268 116 75 89
-0.9190689 0.0628022 -2.6710777 174 137 170
-1.3290745 0.18444587 -2.7673962 178 192 237
-0.21244423 -0.09530955 0.85656583 82 56 59
-0.3238358 -0.0033073646 -1.8074462 110 118 139
-0.3390834 -0.4753348 6.3806005 116 70 83
-0.20434366 -0.07272636 0.8000461 127 74 84
-0.033263482 -0.04163687 0.055503976 100 88 124
-0.15068533 -0.08282812 0.39809418 88 52 66
-0.6436286 0.1030411 -2.9297137 68 53 58
-0.6936398 0.24048446 -3.5290384 149 102 120
-0.61887974 0.21797122 -3.6746922 59 29 39
-1.1561593 0.13676617 -2.7478561 106 112 148
-1.3286163 0.15707572 -2.7653735 172 183 229
-0.3121917 -0.17768036 2.2482738 106 90 116
-0.1065779 -0.06555671 0.24276492 37 32 39
-0.038278613 -0.008430742 0.07863331 55 42 51
-0.075738445 -0.0497256 0.15996166 67 45 57
-0.6415487 0.09956794 -2.9110103 151 108 125
-0.3196215 -0.19494115 2.4747176 130 74 87
-0.86030686 0.20253344 -3.0001552 87 70 89
-0.1997313 -0.08543291 0.749843 104 63 81
-0.90010315 0.058422707 -2.662033 119 67 80
-0.45599502 0.24831669 -4.247324 64 31 38
-0.30772248 0.26468328 -4.3080006 191 182 167
-0.66954625 0.25655484 -3.687491 155 122 141
-0.09334035 -0.05878462 0.20591836 104 96 111
-1.0119956 0.116147876 -2.7551522 99 75 89
-0.2887333 -0.15508966 1.9188294 59 26 37
-0.35697484 0.23192365 -4.041531 93 53 53
-0.21545443 -0.10554365 1.2506686 100 49 68
-0.19780332 -0.0010501577 -0.13257776 138 84 97
-0.97809386 0.12919548 -2.7879424 144 127 146
-0.2278829 0.00076558365 -1.2495031 97 60 68
-0.06439455 -0.056169055 0.12029342 116 102 127
-0.22281195 0.089800216 -1.9129876 102 84 72
-1.329165 0.12516029 -2.7553093 112 117 155
-0.19397546 -0.04436453 0.11876122 142 89 107
-0.75585073 0.11919539 -2.925938 97 64 83
-0.06960577 -0.055434905 0.13576701 72 62 73
-0.9047835 0.16327581 -2.8928614 140 121 141
-0.908529 0.047919586 -2.6338804 142 126 155
-0.27320445 -0.14540504 1.762485 84 48 62
-1.5628084 0.17464676 -2.8347428 125 133 172
-0.59733343 0.19022913 -3.5356877 140 96 113
-1.0360657 0.065529905 -2.669114 82 64 80
-0.12522252 -0.04981568 0.3411718 113 98 119
-0.006705696 -0.021179428 0.009620461 103 98 121
-0.12228668 -0.05595878 0.32151267 121 102 121
-0.96637064 0.20340228 -2.8626204 144 126 148
-0.20324288 -0.07738245 0.70530945 162 108 124
-0.96523637 0.18835382 -2.8591704 95 92 111
-0.49266765 0.069377035 -2.689263 82 44 55
-0.2256561 -0.09215569 0.9835907 116 85 101
-0.8712615 0.20073584 -2.9807224 81 63 79
-0.8358884 0.06565545 -2.6933086 171 136 168
-1.3384874 0.1104774 -2.7502255 152 166 203
-0.96340877 0.104438156 -2.7520022 129 107 128
-0.82546604 0.082785994 -2.7513912 83 41 51
-0.21014625 -0.08821467 0.8394785 55 26 30
-0.25270036 -0.11764519 1.3256481 139 81 95
-0.891666 0.22096553 -2.9552262 93 74 94
-0.1683596 -0.079999775 0.5190243 108 75 82
-0.2408213 -0.10463133 1.1503737 93 50 57
-0.6262384 0.010578956 -2.4378116 44 48 121
-0.21840814 0.19168164 -2.9963331 67 30 37
-0.029007446 -0.02628706 0.0538546 45 37 52
-0.6717614 0.17445272 -3.2956097 128 72 83
-0.7662008 0.22861633 -3.2445583 135 119 145
-0.19372837 -0.094943546 0.65185297 93 63 73
-0.22105218 0.03391721 -1.39415 81 58 68
-1.0365998 0.08308819 -2.698836 146 123 133
-0.441529 0.19892964 -3.7632668 133 79 92
-0.6715822 0.1743215 -3.295255 130 76 89
-0.6714169 0.18461797 -3.34989 71 31 40
-0.03827488 -0.020355122 0.07685623 72 59 85
-0.043079976 -0.029314589 0.085268036 111 83 106
-0.13825928 -0.048742417 0.4019621 123 103 115
-0.21117663 -0.08442979 0.85102564 137 85 97
-0.6633408 0.21420878 -3.5240302 134 86 102
-0.9232687 0.2259476 -2.9077678 127 118 145
-1.0484958 0.11383024 -2.7421868 88 67 86
-0.72580385 0.10005473 -2.867857 140 99 115
-0.22300068 -0.08721193 0.95722365 139 121 137
-0.29268575 -0.17471763 2.2137969 131 77 90
-0.21240829 -0.09798253 0.9122705 162 123 144
-1.1382434 0.14342794 -2.7540126 136 113 133
-1.3867148 0.08318809 -2.7478974 69 69 97
-0.43058965 0.20424502 -3.813638 102 60 80
-0.08889946 -0.052844573 0.19843042 109 99 123
-0.7909837 0.113028646 -2.8733914 136 81 100
-0.18501078 -0.09107857 0.59789914 38 27 25
-0.19126959 -0.03450139 -0.3912277 73 32 40
-0.33560643 -0.23032393 2.9455616 138 85 103
-0.88525164 0.15387993 -2.8968675 135 110 132
-0.6187617 0.25856057 -3.9301805 82 43 48
-0.7530016 0.08195197 -2.777258 145 94 109
-0.04483443 -0.025193037 0.091154166 131 123 146
-0.6441545 0.3062941 -3.9615853 122 71 80
-0.22427237 -0.13944764 1.8161856 124 72 85
-0.057419777 -0.021094061 0.12456687 75 62 88
-0.67207134 0.17437954 -3.294632 128 72 83
-0.21426918 -0.102251336 1.1916144 71 29 33
-0.667901 0.17154989 -3.2872782 78 37 45
-0.49906084 0.502118 -6.6860957 112 82 110
-0.21660684 -0.10194594 1.035749 152 101 120
-0.2236696 -0.07784594 0.96338654 142 111 126
-0.23677246 0.104355685 -2.197784 55 31 27
-0.060659144 -0.0460528 0.120062605 94 71 89
-0.46956784 0.16035138 -3.4068878 133 90 109
-0.119258784 -0.055229854 0.30952114 118 94 110
-0.21225467 -0.08733013 0.8591679 43 31 35
-0.7890188 0.068363436 -2.7134125 170 133 164
-1.134408 0.11003124 -2.7270224 131 107 129
-1.2560805 0.12639786 -2.7440424 117 122 162
-0.455289 0.10719442 -2.9446614 154 102 124
-0.16954124 -0.05803116 0.56458396 75 59 72
-0.27895448 0.08342896 -2.277501 109 67 89
-0.01789594 -0.020443631 0.032017518 131 117 142
-0.16749437 -0.07978326 0.51387644 124 92 103
-0.28718325 0.17126231 -3.1983323 125 107 97
-0.014764044 -0.015551433 0.026788037 85 68 86
-0.23518135 -0.08671111 1.073578 58 43 64
-1.1639973 0.09674977 -2.7139106 116 119 150
-1.1837392 0.1038241 -2.721746 121 126 158
-0.9697476 0.03628194 -2.6079228 93 80 98
-0.05520861 -0.026957337 0.116905086 55 47 60
-0.06339321 -0.050778955 0.123248145 115 94 111
-0.66170263 0.010860994 -2.4597008 78 78 106
-0.9103899 0.05029123 -2.6399922 99 79 104
-0.13121587 -0.04624942 0.370928 63 46 52
-0.11108181 -0.06612902 0.259062 48 35 44
-0.0037077703 -0.041299663 -0.0045726974 93 84 115
-0.04596376 -0.054534357 0.07456653 115 99 126
-0.04547256 -0.025088623 0.09276082 61 49 71
-0.28924683 0.03366533 -1.9122431 99 53 66
-0.3609757 1.2160894 -15.881722 82 43 61
-0.5459411 0.20478064 -3.736116 72 40 53
-0.42994958 -0.73237264 9.458547 110 67 74
-0.9875918 0.049488775 -2.6376867 137 116 131
-0.1395965 -0.06861225 0.3811362 46 33 40
-0.09019174 -0.062757745 0.18943734 47 37 45
-0.27329987 -0.124251105 1.5416777 104 72 85
-0.22600788 -0.2465684 3.3429234 141 88 104
-1.0533179 0.063185245 -2.6653311 140 118 131
-0.8096287 0.2192841 -3.116873 104 86 112
-0.5765631 0.3742221 -4.825904 88 52 62
-0.188643 -0.094796956 0.5876682 64 63 94
-0.060166765 -0.06080724 0.10336612 49 41 52
-1.1047161 0.1036941 -2.7218142 126 101 122
-0.89388037 0.17201908 -2.9173832 126 117 138
-0.046369012 -0.054705404 0.0753743 120 108 132
-0.22277734 0.14185406 -2.4654262 134 112 89
-0.57833886 0.102554254 -2.9486964 103 74 92
-0.05162846 -0.013870366 0.11072695 107 86 103
-0.14665793 -0.062345143 0.42901582 127 105 126
-0.35688552 0.23079893 -4.029208 89 47 48
-0.7562992 0.23911151 -3.2880757 97 75 98
-0.5838758 0.11281861 -3.0152886 76 60 71
-0.09387989 -0.04838788 0.22009605 54 47 55
-0.26870513 -0.14728945 1.7956882 119 63 72
-0.06679196 -0.017901631 0.15086152 71 57 80
-0.05618258 -0.05054923 0.10409871 103 99 122
-0.13667208 -0.06758357 0.36872256 88 72 82
-1.4620373 0.1801773 -2.7991617 109 118 173
-0.2594649 0.06579016 -2.0041137 152 109 126
-0.19397122 -0.044196248 0.11651756 144 91 109
-0.2620052 -0.11102812 1.3821089 104 73 91
-0.31067154 -0.17454728 2.2099626 123 104 126
-0.5600956 0.11761869 -3.0551903 80 61 67
-0.049299814 -0.025404667 0.10221284 105 81 105
-0.039926548 -0.022264522 0.080232255 136 112 134
-0.9623603 0.19482793 -2.864503 141 126 155
-0.712032 0.2727248 -3.488582 155 134 153
-0.67915 0.15738569 -3.1931992 115 65 74
-0.28565693 -0.15101852 1.8584692 62 27 31
-1.0230824 0.16189308 -2.8022037 100 71 93
-0.6068289 0.22969437 -3.7872329 86 44 56
-0.18677743 -0.087004706 0.6340943 65 43 46
-0.1985127 0.0021657578 -0.722841 90 47 57
-0.038733114 -0.023624066 0.07699163 82 69 95
-0.19258004 -0.07137663 0.70951676 102 87 106
-0.9840389 0.098172724 -2.7340233 114 89 111
-0.12236976 -0.055975147 0.3218505 121 102 121
-1.036529 0.118768476 -2.7515469 149 126 144
-0.0375176 -0.060164865 0.049176056 128 126 137
-0.13815539 -0.051276866 0.39932677 122 98 114
-0.9919971 0.0668787 -2.6731238 101 92 109
-0.18670185 -0.08700549 0.63345027 65 42 48
-0.009636859 -0.047315817 0.0027647833 119 113 139
-1.1874087 0.1479323 -2.7522817 94 105 151
-0.19257765 -0.027312422 -0.2627397 101 63 74
-0.09379593 -0.0484276 0.21976607 63 55 70
-0.7461016 0.104313 -2.87297 179 128 145
-0.30659878 -0.16882454 2.1313994 61 48 58
-1.3584641 -0.046036083 -2.6161435 120 140 165
-0.24689406 -0.09696258 1.1985925 138 114 130
-0.017246129 -0.057218187 0.009724649 79 75 90
-0.19779103 -0.09268851 0.71317285 63 39 35
-0.044690106 -0.013087898 0.09354 36 28 49
-1.2494394 0.074097455 -2.703612 119 126 170
-0.96929395 0.03627657 -2.6078684 88 74 97
-0.13499151 -0.06512431 0.36530894 47 37 46
-1.1923219 0.028254135 -2.6371286 92 83 100
-1.1354262 0.09890808 -2.7154322 109 93 122
-0.040051088 -0.032096297 0.07671436 71 58 78
-0.0621078 -0.032333642 0.1331867 72 57 76
-0.005901819 -0.04159696 -0.0006728956 127 113 138
-0.19079214 -0.07222748 0.69538206 76 53 73
-1.4114096 0.05791681 -2.7394788 123 144 173
-0.472288 0.4020274 -5.8193927 72 46 57
-0.7853114 0.068663076 -2.7154381 170 133 164
-0.26716927 -0.1336228 1.5787543 135 75 87
-0.80046463 0.14462923 -2.9692693 80 35 40
-0.9440142 0.11966546 -2.788908 136 115 134
-0.30223826 -0.18166165 2.30675 104 59 64
0.0009701652 -0.06642646 -0.03139707 52 68 55
-0.424576 0.034366354 -2.3463748 112 81 96
-0.3533592 1.2659698 -16.52366 87 42 62
-0.622807 0.031502325 -2.5403042 112 77 97
-0.17014965 -0.054271273 0.5706565 125 102 120
-1.4439582 0.05224152 -2.7482376 105 109 144
-0.42437184 0.034353472 -2.3458881 112 80 95
-0.9331519 0.071973056 -2.6911283 138 116 129
-0.037712716 -0.037214436 0.06846637 69 57 81
-1.235862 0.08901251 -2.7145705 153 167 206
-0.08835326 -0.030474097 0.21339484 66 58 79
-0.20469035 -0.07748111 0.7830912 136 82 96
-1.1353116 0.14355806 -2.7544901 137 114 132
-0.27955303 -0.16823018 2.1322026 62 29 36
-1.1797972 0.12817766 -2.741044 120 124 171
-0.13548648 -0.066962995 0.36418304 60 43 51
-0.2034694 -0.07535661 0.71823734 75 43 56
-0.14792451 -0.0721162 0.4168901 87 73 90
-0.17437653 -0.08739725 0.5317216 94 56 67
-0.72379905 0.04689599 -2.63598 103 60 80
-0.049004644 -0.026561437 0.10105098 104 91 117
-0.4731905 0.10060935 -2.906771 73 53 62
-0.95487136 0.123645194 -2.7905161 140 118 131
-0.051301096 -0.031720303 0.10469965 69 58 74
-1.3224624 0.1198418 -2.7514362 152 164 204
-0.7782542 0.0853428 -2.7799654 114 70 93
-0.18649787 -0.06872475 0.17543867 69 42 47
-1.5516846 0.11403441 -2.822217 185 204 247
-1.4952669 0.12638244 -2.8039556 154 168 205
-0.22326571 -0.08704753 0.9596504 96 70 83
-0.17970622 -0.079431094 0.6011917 165 110 129
-0.7139548 0.10153673 -2.8819172 150 101 120
-0.21208505 -0.09760396 0.90677446 163 124 143
-0.044258516 -0.012478702 0.09255455 128 112 123
-0.10526427 -0.05113743 0.25846323 63 53 62
-0.07805404 -0.05730713 0.15847872 99 91 112
-0.7725526 0.20981003 -3.1954348 114 85 103
-1.2253538 0.16188207 -2.7566445 142 151 190
-1.0653592 0.095010504 -2.7140985 157 140 158
-0.17374761 -0.08891663 0.5178524 73 53 54
-1.1226685 0.10456697 -2.7218196 120 98 119
-0.18501563 -0.06905491 0.65661776 138 113 132
-0.12713188 -0.08386654 0.27780205 104 120 119
-0.9772191 0.07752715 -2.695982 103 77 88
-0.1590708 -0.043575853 0.51097906 134 115 135
-0.046434496 -0.05471205 0.0755259 120 108 130
-1.1030108 0.042641453 -2.6370537 130 106 120
-1.067093 0.04215554 -2.630655 125 106 134
-0.9474093 0.07624796 -2.6983013 89 61 83
-0.22562118 -0.111080684 1.1829555 106 62 79
-0.96256495 0.17601097 -2.8535326 148 131 149
-0.2768541 0.15143305 -2.9412942 53 35 25
-0.17817803 -0.08508272 0.5718384 48 29 25
-0.038143594 -0.048464727 0.061595723 116 98 124
-0.7544397 0.20861499 -3.2398279 104 72 96
-0.18870881 -0.04967438 -0.05358481 70 29 33
-0.33745554 -0.43284494 5.8135877 56 27 29
-0.58726084 0.283117 -4.2314343 126 78 90
-0.009164298 -0.036064163 0.008515662 61 52 69
-0.35096312 1.2002435 -15.725736 118 85 112
-0.84789926 0.014532333 -2.5335689 129 90 108
-0.22398059 -0.12837851 1.6238085 87 48 66
-0.20730835 -0.0846101 0.9259929 131 75 86
-1.0390155 0.08107843 -2.6953511 145 123 136
-0.86774725 0.13538663 -2.8742077 104 81 101
-0.09885734 -0.064406775 0.21649678 50 40 49
-0.6950531 0.11352792 -2.952335 155 98 113
-0.0012096136 -0.04253464 -0.009838844 74 60 73
-0.64772284 0.28283817 -3.8932197 155 127 141
-0.1274884 -0.060639355 0.33785617 103 83 95
-0.4435726 0.10263115 -2.8954022 82 59 69
-0.13721474 -0.057226554 0.3883055 54 38 48
-0.2408219 -0.10462179 1.1503485 93 50 57
-0.38128617 0.124574415 -2.9961758 88 62 75
-0.017269254 -0.050908145 0.014967795 64 54 62
-1.1874182 0.13496004 -2.7453306 104 109 147
-0.6555532 0.10517438 -2.9353826 151 102 121
-0.069105275 -0.06113276 0.12729587 62 55 71
-1.1848232 0.14897019 -2.7528775 103 114 159
-1.1369631 0.122791834 -2.7387075 125 100 121
-0.07792126 -0.0502625 0.16607842 55 36 42
-0.9630302 0.17575894 -2.852945 151 134 152
-0.90106153 0.09906655 -2.7653801 143 125 141
-0.2132912 -0.09756203 1.0209583 150 87 104
-1.1872371 0.10057622 -2.7190351 116 128 166
-0.0317077 -0.04193816 0.051818714 113 100 130
-0.830124 0.1262863 -2.8834455 95 70 91
-0.5952224 0.33859575 -4.4996758 61 30 35
-0.115726694 -0.035196707 0.31102073 130 120 147
-1.2202115 0.14177078 -2.7492533 174 191 237
-0.116265535 -0.027285943 0.31509843 116 93 103
-1.3431795 0.11096138 -2.7516122 153 165 203
-0.67167455 0.17169094 -3.2811139 119 68 75
-0.03171169 -0.06980002 0.025680324 37 58 49
-0.19584739 -0.0026185021 -0.51803476 159 102 121
-1.1801631 0.0876546 -2.7058337 110 116 150
-0.35601395 0.32993007 -5.138733 73 38 42
-0.20296173 -0.07217069 0.78890234 75 63 83
-1.4182702 0.082336664 -2.7579815 84 100 136
-0.08327589 -0.046026815 0.1869384 68 61 69
-0.013167178 -0.01968108 0.022644099 124 110 133
-0.73045915 0.042023588 -2.61581 88 63 84
-0.073650286 -0.032198638 0.16643804 126 101 122
-0.3343741 -0.23762584 3.0639813 56 25 30
-0.20422654 -0.07215649 0.7925719 129 76 86
-1.4076267 0.19224276 -2.7828195 60 79 111
-0.11770962 -0.062140603 0.29296005 115 92 108
-1.0366396 0.124261744 -2.7584827 143 122 139
-0.224376 -0.1247946 1.5520194 133 76 91
-0.13958833 -0.06861115 0.38109735 46 33 40
-0.03010794 -0.047404103 0.044392135 128 113 136
-1.4224592 0.20016119 -2.7853842 141 159 195
-0.21904697 -0.1274695 1.645626 55 28 37
-0.8769719 0.19627252 -2.9681122 106 88 104
-0.15299687 -0.0647123 0.4597536 57 46 60
-0.9883561 0.05007702 -2.6389391 127 104 120
-1.4762245 0.15557726 -2.8029492 164 168 206
-0.27567592 -0.5359495 7.1951942 104 59 79
-0.41942155 0.11966577 -3.0116186 141 96 116
-0.09035531 -0.050109074 0.20629801 55 42 52
-0.3318469 0.49739906 -7.107636 135 84 93
-0.9152855 0.101056986 -2.763871 146 119 136
-0.15610448 -0.04367515 0.49501127 73 61 81
-0.6738353 0.059037708 -2.690797 129 87 101
-0.45082015 0.16841874 -3.4761033 134 82 94
-0.22586498 -0.1049617 1.0133331 73 53 55
-0.93360126 0.20117849 -2.8963866 148 126 147
-0.051776204 -0.01300948 0.111185364 142 119 137
-0.8246347 0.09930987 -2.8049033 144 130 153
-1.110549 0.036267478 -2.6284368 146 137 154
-0.810141 0.119928785 -2.881139 152 128 152
-0.0634557 -0.04963041 0.124528654 124 109 130
-0.28957942 0.03385195 -1.9153315 98 54 67
-0.33730015 -0.43325222 5.819405 55 26 28
-0.8413193 0.047536377 -2.6353652 75 42 61
-0.95028836 0.03816782 -2.6106853 94 76 100
-0.1001168 -0.059914418 0.22813968 46 33 42
-0.07507408 -0.031671625 0.1709631 124 100 124
-0.91509235 0.10146946 -2.7648942 142 121 138
-0.02551198 -0.04925671 0.033101648 121 117 142
-0.15878731 -0.061493646 0.4972272 129 111 135
-0.049709644 -0.025842203 0.10309751 57 46 63
-1.1980419 0.12940657 -2.7419212 150 164 201
0.0010731348 -0.06642652 -0.03156853 52 68 55
-0.057599846 -0.05027554 0.10808532 74 70 84
-0.10699189 -0.050524987 0.26569155 131 106 127
-0.56098163 0.31583074 -4.605622 148 97 114
-0.39085314 0.124872364 -3.0159926 103 74 92
-0.8477771 0.014445482 -2.5332782 129 90 108
-0.5183972 0.21188228 -3.836498 87 46 60
-0.5153822 0.27667394 -4.430348 127 76 95
-0.6862317 0.27665293 -3.6390097 67 52 57
-0.4415185 0.066034295 -2.6044898 99 51 67
-0.585852 0.057176035 -2.6662683 100 48 61
-0.025817744 -0.03836006 0.04115247 61 53 68
-0.25750735 -0.10967086 1.329119 83 62 77
-0.07789086 -0.05025466 0.16599298 54 35 41
-0.2604633 -0.11045414 1.3632625 143 120 138
-0.1560648 -0.04690146 0.4937261 102 71 86
-0.20283775 -0.09743971 0.7406703 33 24 25
-0.19567911 -0.023807807 -0.04836078 84 42 54
-1.4399701 0.05891876 -2.7512205 139 149 185
-1.0364003 0.11883952 -2.7516742 148 125 145
-0.3607472 -0.30315748 3.9008262 56 25 30
-0.022208292 -0.0349011 0.035366464 76 73 90
-0.19881304 0.087494165 -1.4388455 115 72 89
-0.604326 0.22436576 -3.758072 74 41 52
-0.83936083 0.13183665 -2.890792 132 105 124
-1.2749376 0.091538556 -2.7238843 152 164 204
-0.08661518 -0.050229657 0.1937259 97 95 116
-0.81665957 0.10257667 -2.8201425 95 70 89
-0.06002638 -0.01287056 0.13274932 92 67 73
-0.15291847 -0.04743932 0.47670478 85 63 75
-0.1959742 -0.00092886697 -0.52409774 101 47 61
-0.22730817 -0.1126723 1.2113588 101 69 84
-1.3096431 0.12559877 -2.7516708 120 126 162
-1.503126 0.15870048 -2.81236 127 133 167
-0.19189014 -0.09246566 0.6546564 85 50 56
-0.5962305 0.22506042 -3.7853308 84 40 53
-0.20491192 -0.07322888 0.80398035 106 87 107
-0.58919394 0.26117983 -4.0670595 62 34 46
-1.1484021 0.18827584 -2.7673185 168 187 220
-0.5586705 0.3248971 -4.689514 133 80 98
-0.9124575 0.088622525 -2.7358131 103 109 167
-0.76438105 0.19468081 -3.1788418 101 86 105
-0.06829391 -0.04872106 0.13900639 123 109 134
-0.21664703 0.037136305 -1.3589355 81 47 64
-1.3271029 0.056362092 -2.7086608 144 158 193
-0.7262652 0.11048541 -2.9138918 80 31 35
-0.22925182 -0.0827988 1.0153391 112 84 106
-1.5008371 0.15844885 -2.8115423 126 130 167
-1.1311772 0.081793785 -2.695423 136 115 134
-0.12219276 -0.051408075 0.32642898 106 87 107
-0.12104694 -0.07499827 0.27985495 103 85 97
-0.10513728 -0.05364357 0.25511503 109 94 117
-0.9488979 0.078165255 -2.7022443 99 86 104
-0.36764553 0.34355912 -5.3025556 118 99 85
-1.4262227 0.14751267 -2.7863317 77 95 133
-0.23458137 -0.15987784 2.1098278 84 47 64
-1.0006728 0.11647043 -2.759375 97 73 87
-0.19691941 -0.0010753307 -0.6266281 105 72 89
-0.96734846 0.11831674 -2.7754145 88 70 82
-0.7095638 0.25552723 -3.494351 147 125 148
-0.5384664 0.44200855 -5.6724997 95 61 75
-0.40958327 0.08847878 -2.7308273 117 66 81
-0.7474666 0.10972135 -2.8944125 102 50 62
-0.25353488 -0.10126953 1.2754147 105 76 96
-0.13719457 -0.05989688 0.3845843 65 47 61
-0.055247225 -0.06623823 0.083673425 41 35 37
-0.16062108 -0.06355902 0.50522864 60 46 59
-0.8570903 0.17728308 -2.9725826 89 76 96
-0.05649898 -0.045858625 0.10907648 70 66 103
-0.22558297 -0.10719225 1.0357037 63 44 50
-0.20463286 -0.01439137 -0.8506439 119 72 88
-0.8351094 0.049183864 -2.6409261 80 43 60
-0.22084366 0.146816 -2.500837 181 156 126
-1.1483655 0.20553361 -2.7654996 158 179 224
-0.44507718 -0.9325909 12.057726 126 75 90
-0.7773898 0.19281006 -3.1452792 103 76 93
-1.3681173 0.10296036 -2.753876 142 151 192
-0.21632051 0.036727495 -1.3509936 84 47 65
-0.026813691 -0.025946565 0.049162425 58 46 68
-0.45571327 0.2238495 -4.004333 127 73 86
-1.0577108 0.18450172 -2.7962573 95 81 107
-0.060133673 -0.06972679 0.09098482 108 125 106
-0.32527396 -0.21759804 2.7961032 62 30 35
-0.40894878 0.15628922 -3.3339937 83 42 58
-0.047535263 -0.048625384 0.083864786 91 79 103
-1.1745629 0.16447663 -2.7595506 173 186 230
-0.08677527 -0.0340977 0.20658658 138 119 139
-0.38393793 -0.5954568 7.8645573 94 52 62
-0.16489668 -0.08309281 0.48443338 115 69 82
-0.017305916 -0.05723964 0.009822418 79 75 90
-0.70463955 0.093385905 -2.8490906 150 99 116
-0.884061 0.23030126 -2.9649446 102 83 113
-0.31346825 -0.18261093 2.3101232 102 59 69
-0.36442482 0.3363587 -5.2183204 76 51 47
-0.09974216 -0.029055646 0.2528783 75 65 90
-0.059193898 -0.04169341 0.11950609 78 63 82
-0.017464148 -0.051018443 0.015269424 62 56 68
-0.09160599 -0.031355713 0.22389881 55 44 60
-0.5462115 0.2046669 -3.7347548 72 40 53
-0.19029514 -0.057130333 0.7001063 140 108 121
-1.477052 0.1120553 -2.7928543 123 140 183
-1.1007767 0.028626338 -2.6140802 161 181 240
-1.130422 0.18437679 -2.7709537 118 96 119
-0.03829236 -0.020390168 0.07688824 71 58 84
-0.038603667 -0.008524519 0.07938595 59 43 54
-0.59602976 0.31513098 -4.385093 78 34 47
-0.17660812 -0.08841606 0.5433646 51 40 38
-0.28184596 -0.15915099 1.9794191 131 83 95
-0.876764 0.17536336 -2.9430459 130 103 120
-1.4055276 0.09548753 -2.7611096 132 163 191
-0.045638215 -0.04127332 0.08487009 63 52 60
-0.8579597 0.079793826 -2.7305152 102 71 86
-0.661065 0.11897051 -3.0074637 131 70 85
-0.87308973 0.13969931 -2.8793485 128 109 129
-0.7031341 0.10981267 -2.9281745 148 93 112
-1.4888684 0.12572688 -2.8014772 153 165 203
-0.21347842 -0.10309986 1.238421 129 71 83
-0.2621058 -0.11637341 1.3967307 69 50 56
-0.040411618 -0.020441158 0.081887 126 102 126
-1.1402864 0.14227155 -2.753018 120 94 119
-0.037207514 -0.026550617 0.07239435 92 74 96
-0.044253394 -0.012489243 0.092541106 130 114 125
-0.8947456 0.07000283 -2.693512 143 94 113
-0.41762334 -0.6966385 9.063432 55 26 31
-0.21298796 -0.098898426 0.8611859 132 79 89
-0.85975593 0.13486566 -2.8800578 89 67 88
-0.23328194 0.094929576 -2.0721705 69 37 38
-1.0306962 0.04569378 -2.6327937 138 111 126
-0.19697677 0.009396157 -0.6294748 119 62 71
-0.9690229 0.19107907 -2.85704 83 71 95
-0.31424865 0.038722124 -2.0640697 98 55 74
-1.0965482 0.063783824 -2.6686432 143 120 136
-0.2536911 -0.10417491 1.2787248 107 77 89
-0.13302891 -0.07531428 0.33251214 28 24 25
-1.2219739 0.16099398 -2.756394 144 158 197
-0.043915104 -0.07149682 0.049690254 105 124 128
-0.4965217 0.24874361 -4.2049828 110 78 101
-0.018291423 -0.050640374 0.01720895 115 98 116
-0.07626882 -0.066993475 0.13932881 120 107 117
-0.20206581 -0.07616208 0.7794473 86 63 83
-0.72800756 0.23230873 -3.3771937 142 127 150
-0.9413934 0.14353822 -2.831464 146 133 153
-0.98157805 0.049548276 -2.6376452 109 86 106
-0.97239393 0.10196818 -2.7443762 118 96 117
-0.29185915 -0.14500016 1.8363119 84 61 87
-0.3193421 -0.2122001 2.7332418 124 81 98
-0.106807336 -0.060354736 0.25231898 59 45 62
-0.3413245 0.25168368 -4.233549 160 143 125
-0.043124687 -0.06733105 0.053434424 84 105 74
-0.9855369 0.07650297 -2.6927707 99 74 93
-0.77832 0.19286525 -3.143424 105 78 95
-0.48998657 0.1877915 -3.6480436 146 89 104
-0.07543789 -0.053907406 0.15461883 66 55 63
-0.48803443 0.23407835 -4.0773563 135 84 99
-0.6508499 0.28909516 -3.8882346 99 70 92
-0.1958398 -0.055548273 0.31236547 142 89 105
-0.19534168 -0.017068246 -0.16818075 118 62 75
-0.4221483 0.04148151 -2.391693 110 59 76
-0.2141692 -0.099349506 1.0805131 153 100 118
-1.1992782 0.12946184 -2.7419791 152 164 202
-0.6586759 0.28362167 -3.8239157 133 118 141
-0.16576794 -0.04600092 0.54778296 137 116 133
-0.1737204 -0.08148203 0.5516492 74 54 53
-0.2823706 -0.16237701 2.0310576 85 43 53
-0.08751469 -0.021477226 0.2129996 86 68 80
-0.23102957 -0.097257435 1.039754 140 86 99
-0.2148681 -0.09990567 1.0506322 154 105 126
-1.4249662 0.1474214 -2.785953 81 95 134
-1.1051204 0.20734875 -2.7767587 142 128 154
-1.0717673 0.20366284 -2.7906368 96 83 109
-0.96095836 0.10181254 -2.7478497 151 127 143
-0.071001574 -0.019872928 0.1625968 70 57 83
-0.99677 0.08800937 -2.7127411 137 116 131
-0.9214467 0.043922193 -2.6235433 127 123 146
-0.2072389 -0.088392414 0.8127915 86 44 58
-0.61523163 0.24851502 -3.882513 72 34 45
-0.84389156 0.15624608 -2.9478152 87 61 74
-1.1322097 0.09003779 -2.7053795 145 122 138
-0.26669478 0.03665298 -1.8093263 133 84 103
-0.09958201 -0.03531154 0.24985428 135 113 134
-0.122900136 -0.028974142 0.34168822 77 67 78
-0.19594501 -0.08446337 0.7190079 78 36 40
-0.9786355 0.12902425 -2.7874243 143 126 145
-0.21329917 -0.098854676 1.1130497 126 78 90
-0.07883973 -0.043687973 0.17491995 75 68 84
-0.19859636 0.08462713 -1.3966914 116 73 90
-1.1968277 0.08117978 -2.701158 149 161 199
-1.3033016 0.12600598 -2.7507162 123 129 165
-0.35691237 0.23042795 -4.0252304 88 46 47
-0.2159365 0.036233604 -1.3415 91 48 65
-0.007216677 -0.018552067 0.011289104 62 51 68
-0.6569827 0.20900422 -3.5150025 90 43 49
-0.29385954 -0.17632356 2.2372324 116 64 77
-0.69824964 0.05008291 -2.6490734 82 44 57
-0.70248073 0.10993131 -2.9292235 149 94 113
-0.042293712 -0.020942036 0.086266525 122 98 124
-0.95474285 0.07201755 -2.687766 132 112 124
-0.08867788 -0.044417266 0.20600075 117 98 120
-0.5594023 0.15386595 -3.3194818 107 64 71
-0.2575958 -0.10972049 1.3301727 88 68 80
-0.023879671 -0.019008208 0.044935334 141 122 144
-1.0587025 0.104098804 -2.7274134 139 122 141
-0.6836355 0.24355574 -3.5800607 90 41 47
-0.86198294 0.100960515 -2.7892518 135 118 137
-0.48458678 0.11396425 -3.0199058 155 113 135
-0.10193484 -0.059322383 0.23563176 47 37 48
-0.09912806 -0.04197337 0.24413519 114 96 112
-0.025696922 -0.04684957 0.035313286 79 68 85
-1.0334449 0.14651434 -2.7841403 123 100 120
-0.6000053 0.1656174 -3.360224 110 53 72
-0.7196593 0.24600464 -3.4357686 143 116 131
-0.102400355 -0.027157493 0.2628624 124 107 126
-0.65049416 0.29929966 -3.9046748 106 63 73
-0.1806661 -0.08419244 0.5945256 67 52 55
-0.19943541 -0.07490643 0.7593701 121 111 138
-0.57596457 0.25124025 -4.0389967 86 42 59
-0.016771087 -0.011761492 0.031486418 61 49 59
-0.7282625 0.24719445 -3.4021358 98 79 101
-0.9325779 0.18577199 -2.889256 146 132 157
-0.15255064 -0.04754916 0.47470874 128 110 132
-0.45481387 0.19052039 -3.6830726 99 53 64
-0.21226119 -0.07708357 0.86326605 78 55 63
-0.09142225 -0.03060335 0.22357443 121 107 133
-0.21723288 -0.18657109 2.5294988 133 78 97
-0.8561994 0.1922414 -2.995981 143 124 143
-1.1879987 0.06041678 -2.6766589 144 154 189
-0.0649418 -0.042142056 0.13502364 72 55 71
-0.2783253 0.29839215 -4.612156 60 31 33
-0.186538 -0.08700309 0.6320707 67 47 49
-0.84317255 0.10787168 -2.8198633 133 119 145
-0.100184396 -0.027776424 0.2547921 80 61 80
-1.3035058 0.07908775 -2.720752 150 168 208
-0.029168302 -0.0065657683 0.058137674 115 113 127
-1.5708474 0.099483766 -2.825548 148 164 197
-1.0734459 0.045185678 -2.6366913 136 117 137
-0.9928339 0.19679901 -2.8388522 127 117 142
-0.3534121 1.190344 -15.595763 118 85 112
-0.19991392 -0.062346574 0.5199017 138 86 98
-0.700098 0.2672062 -3.5538313 109 84 106
-0.045589812 -0.04894091 0.078830734 77 71 85
-0.5180266 0.27485105 -4.4068356 137 89 105
-0.26200807 -0.1162713 1.3953688 69 50 56
-0.24802996 -0.10319474 1.2171937 82 67 74
-1.3217953 0.10050423 -2.7404768 110 115 155
-0.2972527 0.0942211 -2.4645317 157 114 131
-0.19844879 -0.006633425 -0.7025276 98 48 59
-0.19577567 -0.07533528 0.7302797 84 35 41
-0.032643586 -0.017768327 0.06449324 83 73 98
-0.05136368 -0.03171577 0.10486254 69 58 74
-0.18162051 -0.054687228 0.64242625 68 52 65
-0.98944265 0.1991935 -2.8419046 141 119 142
-1.2615453 0.08699707 -2.7175448 148 163 196
-0.038415715 -0.020270215 0.07720893 74 58 85
-0.18108596 -0.054464355 0.63901657 79 65 78
-0.2201829 -0.10598014 1.1071224 144 97 113
-1.03416 0.14940923 -2.786544 140 123 142
-0.20897618 -0.08999696 0.90898687 144 83 101
-1.0679604 0.041725982 -2.6300383 122 103 133
-0.32515058 0.3380957 -5.1964383 63 28 34
-0.18974388 -0.07101905 0.29153028 113 66 82
-0.22436038 -0.10524879 1.0026511 66 41 45
-0.3412406 0.16671093 -3.3221955 87 74 84
-0.72729385 0.24309993 -3.4003284 103 76 95
-0.25096983 -0.10172125 1.2462502 85 65 77
-0.31142136 0.10697547 -2.64119 97 54 71
-0.12625045 -0.060997613 0.3317269 44 32 42
-1.1497984 0.17599015 -2.7657425 173 188 227
-0.988836 0.053875655 -2.6468446 104 83 98
-1.3247464 0.09725483 -2.7391305 117 129 171
-0.01833987 -0.048627894 0.018821718 79 69 94
-1.0513091 0.057058573 -2.6548061 138 116 129
-0.5706196 0.17406589 -3.459476 87 38 44
-0.08396419 -0.055760607 0.17885365 108 95 113
-0.85134375 0.024130257 -2.5634313 145 96 115
-1.1389177 0.14220117 -2.753144 125 97 122
-0.74063987 0.1962623 -3.2390273 98 78 103
-0.3402063 0.50428635 -7.194751 83 47 61
-0.18791431 -0.049937826 -0.099849716 80 38 48
-1.3384725 0.0822684 -2.7326207 149 161 203
-0.0038780652 -0.012585394 0.006161036 122 100 123
-0.11924032 -0.04861926 0.31666884 81 63 75
-1.1232686 0.16875096 -2.7691617 125 110 131
-0.23757793 -0.10461954 1.1198267 76 31 38
-0.57421076 0.2688589 -4.1805887 103 75 98
-0.21331955 -0.07772077 0.87210166 62 37 43
-0.68725926 0.21752612 -3.4662058 93 68 90
-0.9586618 0.07939922 -2.7030122 130 106 120
-1.337778 0.15026891 -2.7655764 154 148 148
-0.5429963 0.33476672 -4.8549914 138 86 99
-0.14080074 -0.06837396 0.3877418 57 36 45
-0.05497767 -0.019725004 0.11843497 108 95 123
-0.122128166 -0.06417342 0.30822176 91 82 101
-0.08431807 -0.052481834 0.1838351 112 100 124
-0.32769367 -0.22761284 2.939257 57 26 32
-0.30975807 0.26571003 -4.3250036 188 176 164
-0.12397365 -0.047285017 0.3379976 108 95 113
-0.19237728 -0.047885332 0.09443444 89 62 71
-0.07926844 -0.054768167 0.16529289 50 42 53
-1.3999166 0.2062464 -2.7782984 51 66 95
-0.7407349 0.09742699 -2.847471 76 50 61
-0.63603425 0.29375872 -4.00484 144 125 145
-0.08590748 -0.022124935 0.20772399 77 59 71
-0.11436175 -0.053329114 0.29159078 108 91 109
-1.1422541 0.12996101 -2.7441268 133 109 131
-0.58692086 0.2955687 -4.319445 106 66 75
-0.9190202 0.16003731 -2.874311 93 69 85
-0.7917146 0.11309374 -2.8730512 137 80 97
-0.024972241 -0.040835973 0.03785305 130 118 138
-1.4461203 0.062594384 -2.7560768 141 150 189
-0.13732086 -0.05725408 0.3887862 54 39 46
-0.19413619 -0.046181742 0.14749774 142 89 105
-0.8348454 0.19587733 -3.0371797 88 67 82
-0.693089 0.24783225 -3.552873 152 103 124
-0.19330533 -0.07122897 0.71507275 135 107 122
-1.1304964 0.08189283 -2.6955087 133 109 131
-1.1286336 0.1851986 -2.771463 125 105 130
-0.10335846 -0.038253043 0.26199648 130 112 138
-1.3062344 0.095660105 -2.7336726 154 167 209
-1.0585788 0.08653793 -2.7024248 160 133 150
-1.1722229 0.11540558 -2.731356 156 168 206
-0.24530503 -0.13539694 1.6329947 48 23 27
-1.04448 0.19798599 -2.8047175 108 83 104
-0.94556516 0.19054362 -2.8789432 83 65 89
-1.2735083 0.074842885 -2.70976 153 165 205
-0.102463394 -0.027180633 0.26308462 124 107 126
-1.1880352 0.119957626 -2.735198 119 125 161
-0.24876046 0.068937846 -1.9563056 102 55 71
-0.05459353 -0.031038482 0.11357039 118 92 119
-0.061603524 -0.04924418 0.11980639 118 105 125
-0.21337175 -0.15678465 2.1247807 119 64 83
-0.25349915 -0.11713688 1.3273919 85 38 46
-0.042940848 -0.009596414 0.08958795 129 107 128
-0.75752753 0.22118354 -3.2589376 109 92 108
-0.42747667 0.20306687 -3.801164 101 52 71
-0.50271386 0.28568575 -4.5462403 126 74 87
-0.57274264 0.26625234 -4.1658273 103 75 100
-0.22157945 -0.102722995 0.96029013 104 66 79
-0.18881407 -0.06538082 0.1978646 58 33 39
-0.22130062 0.38685644 -5.4250054 74 40 54
-0.8557853 0.20360175 -3.0088353 101 97 112
-0.61587644 0.24382488 -3.8504167 122 75 91
-0.24538502 0.097784765 -2.2020466 65 34 42
-0.26579836 -0.20594315 2.7592447 119 69 78
-1.0438595 0.1942053 -2.8048768 95 83 105
-0.08541773 -0.049390417 0.19067186 107 95 119
-0.07115227 -0.03068934 0.15973161 69 59 84
-0.06093189 -0.027872851 0.13192153 127 107 134
-0.17724851 -0.078404486 0.5857832 161 106 125
-0.25968876 0.16991182 -3.0520315 112 88 50
-0.24080119 -0.09285655 1.1321294 87 63 76
-0.18696316 -0.09093626 0.61687 39 28 32
-0.87276155 0.1959454 -2.974168 145 127 153
-0.6971636 0.21309662 -3.417485 137 119 141
-0.0921924 -0.045479693 0.21697262 62 46 59
-0.005895761 -0.034542866 0.0030321148 123 115 139
-0.07995645 -0.045127075 0.17720488 75 73 87
-0.5604747 0.34231433 -4.812142 62 30 43
-0.8343205 0.119865574 -2.8612194 140 122 138
-0.3740817 0.66886413 -9.166432 51 25 34
-0.16680919 -0.046793044 0.5536001 124 97 112
-0.060181145 -0.06974443 0.09107908 108 125 106
-1.1197414 0.1049377 -2.722349 117 95 116
-0.704763 0.23250721 -3.4616508 100 62 75
-0.61368597 0.004075416 -2.3975396 77 93 93
-1.5012648 0.11349072 -2.8022575 158 172 211
-0.015472318 -0.012684196 0.028718555 131 119 143
-0.20331526 -0.071606286 0.7919531 111 81 89
-1.004816 0.14977357 -2.8007414 84 60 74
-0.65388685 0.21403433 -3.5510051 69 30 33
-0.23441796 -0.14078353 1.7888294 91 50 66
-1.0846496 0.17095184 -2.7809713 136 118 142
-0.87912804 0.046605043 -2.6310923 125 80 101
-0.96802324 0.13360932 -2.7997537 126 102 124
-0.25744712 0.12147629 -2.5233712 50 30 31
-0.64143103 0.10291839 -2.930074 81 61 70
-0.0899812 -0.030435853 0.21880896 121 101 128
-0.07445421 -0.041423056 0.16325554 93 76 95
-0.004406152 -0.0134698525 0.0070053497 116 104 126
-0.16066661 -0.07915938 0.47153935 94 53 59
-0.27915132 0.03057303 -1.8357486 103 52 69
-0.15579104 -0.04470531 0.49305078 77 68 85
-0.08198594 -0.044375706 0.18424152 143 120 140
-0.9281765 0.18956332 -2.8967006 122 107 126
-0.6922624 0.11371737 -2.955446 150 93 108
-0.73189324 0.22327493 -3.342627 146 123 143
-0.18066832 -0.0841877 0.5945593 67 52 55
-0.4735228 0.10055332 -2.906586 73 53 62
-0.014712973 -0.015541084 0.026687283 85 68 86
-0.47690776 0.16963698 -3.4896176 127 71 84
-0.2819065 0.044913687 -1.9620776 95 53 67
-0.22539389 -0.10695843 1.0308925 80 54 65
-0.05454315 -0.031019472 0.11344705 118 92 119
-0.076960504 -0.040247303 0.17172085 114 96 122
-0.64175344 0.099373735 -2.9098241 152 105 121
-0.22548367 -0.106143475 1.0204455 81 39 43
-0.5500924 0.055937927 -2.6417575 112 61 78
-0.1037566 -0.05213723 0.25168747 103 88 107
-0.085387714 -0.021996241 0.2060805 77 60 68
-0.07721998 -0.025156986 0.1798923 132 113 132
-0.6745703 0.26887727 -3.6966257 106 87 109
-0.10287741 -0.04578961 0.2547598 121 106 125
-0.10274595 -0.037594203 0.26011923 125 109 135
-0.17379528 -0.08892739 0.5181498 73 53 54
-0.28108633 -0.15472052 1.9093646 76 38 51
-0.2233494 -0.11765111 1.4115341 123 74 93
-0.8735445 0.06142537 -2.6737208 115 66 87
-0.96492976 0.05521425 -2.6499293 104 85 104
-0.10357773 -0.035898943 0.264076 72 60 82
-0.10244438 -0.029040948 0.26256618 129 105 127
-0.96299875 0.09160984 -2.727187 149 127 140
-0.18304455 -0.07973791 0.62543935 142 88 104
-0.60154426 0.16069429 -3.32459 86 36 45
-0.5020636 0.12165933 -3.087188 145 102 121
-0.056175787 -0.04575614 0.10830846 67 68 112
-0.27797285 -0.15476327 1.9117779 131 73 85
-1.133654 0.08731485 -2.702219 123 98 117
-0.09765835 -0.05152848 0.23011093 62 48 65
-0.07522139 -0.06602755 0.13779081 57 59 72
-0.097818114 -0.060387023 0.21920948 94 78 104
-0.262528 -0.13365948 1.5682161 118 63 69
-0.14306062 -0.046969872 0.4265912 136 108 120
-0.4009832 0.124796316 -3.0315988 113 81 105
-1.1503354 0.059868313 -2.6694837 106 110 145
-0.98119617 0.20902574 -2.8490145 137 121 147
-0.4993028 0.50137126 -6.676661 112 82 110
-1.0695026 0.14622511 -2.7709026 102 77 98
-0.10879992 -0.024218298 0.28673685 115 102 122
-0.11089019 -0.06134631 0.26660162 52 41 55
-1.1305915 0.17904793 -2.7701652 155 131 153
-0.88668334 0.09841539 -2.7702446 130 108 129
-0.61129016 0.22925599 -3.770805 129 88 104
-0.7997232 0.22738 -3.147687 91 67 80
-1.174182 0.07122522 -2.6870475 101 110 143
-0.41752684 0.04382254 -2.3994815 120 72 88
-0.22899792 -0.10713267 1.0571764 136 90 103
-0.039224938 -0.05759907 0.055697586 61 50 66
-1.2225182 0.08688764 -2.7105184 118 124 158
-0.027007055 -0.012700455 0.052892845 62 44 70
-0.9626586 0.07624325 -2.6956282 120 97 115
-0.12230695 -0.06655736 0.30452323 81 79 90
-0.40420312 0.17956671 -3.5543387 170 155 148
-0.8913916 0.19309905 -2.944691 140 128 152
-0.8684779 0.1847294 -2.9675984 102 77 98
-1.1412133 0.19828258 -2.7683268 125 110 143
-0.26690304 -0.16881718 2.1705525 112 61 70
-1.4277465 0.20074254 -2.7867 163 178 219
-0.7120314 0.23244786 -3.4349122 76 36 47
-0.068088904 -0.01464556 0.15485099 77 50 55
-0.25100723 0.26240635 -4.068665 65 29 31
-1.0925148 0.053919222 -2.653219 102 70 83
-0.039031465 -0.03223358 0.074231185 68 64 81
-0.13003168 -0.053368855 0.359044 65 47 61
-0.2552118 -0.11169553 1.3118881 89 80 97
-0.49345297 0.123327 -3.0983179 140 96 119
-0.74301654 0.16533037 -3.123794 146 128 152
-0.3157927 -0.18874615 2.392644 111 61 72
-0.2291424 0.0034441014 -1.2785666 89 49 57
-0.111237146 -0.058003947 0.2730049 114 99 120
-1.0278848 0.080445416 -2.6952312 106 75 91
-1.2629782 0.08708452 -2.7179046 151 164 198
-0.0895318 -0.03009436 0.2174419 131 113 137
-0.28184935 0.20899871 -3.5914216 174 160 133
-0.2400134 -0.10347961 1.1392254 98 53 60
-0.035092667 -0.024377473 0.06826194 93 73 98
-0.18636239 -0.05374796 0.6738296 90 66 88
-0.7288043 0.24897102 -3.4019217 113 91 104
-0.024620397 -0.035786364 0.04001885 72 66 92
-0.11711278 -0.063013434 0.28900796 101 92 109
-0.7355109 0.09312556 -2.8320227 131 84 102
-0.17511907 -0.06569346 0.5927535 135 109 122
-0.6762706 0.2745989 -3.6974356 150 122 144
-0.8670755 0.12753619 -2.855816 102 79 105
-0.1195802 -0.08095723 0.256501 34 54 43
-0.281802 0.14180467 -2.8637912 98 82 66
-0.18743028 -0.057590768 0.680335 95 73 86
-0.07594416 -0.049762078 0.16054824 66 46 55
-0.2299171 -0.115519024 1.2679818 147 98 117
-0.40209585 0.16967855 -3.455306 132 95 103
-0.48094198 0.26574868 -4.3932123 111 66 73
-1.0544846 0.16646619 -2.790429 142 128 153
-0.23336051 -0.11157463 1.1405257 71 38 47
-0.21441732 -0.09629592 0.87621623 88 56 59
-0.9004652 0.18534912 -2.9256277 97 73 86
-0.6154759 0.24400255 -3.852995 123 76 94
-0.41186512 0.16688159 -3.43806 142 98 115
-1.4232882 0.17790598 -2.7880237 141 167 202
-0.19633375 -0.06697839 0.7403879 99 67 78
-0.031019088 -0.011104536 0.0619157 126 101 123
-1.5686479 0.09942313 -2.8245811 146 165 197
-0.20729677 -0.07413585 0.8229319 120 106 123
-1.3825928 0.05541369 -2.7269208 30 26 51
-0.7847048 0.19677903 -3.1388953 112 84 107
-0.06224288 -0.04942178 0.121388264 120 105 124
-0.13247722 -0.06665624 0.35036537 49 38 42
-0.67398626 0.17745708 -3.3071024 131 79 91
-0.8800978 0.057946987 -2.6630025 115 71 84
-0.2945788 -0.14893673 1.8854662 143 125 141
-0.39889967 0.04144209 -2.343015 147 104 124
-0.44363368 0.15521483 -3.3520904 94 60 74
-0.7824287 0.19210722 -3.1328385 109 87 100
-0.8765425 0.21587804 -2.9797447 145 123 144
-0.19422142 -0.021986682 -0.19019395 156 99 116
-0.2546118 0.042489212 -1.774851 109 64 71
-0.81451744 0.111758 -2.851357 88 65 81
-0.86463356 0.07031145 -2.7009935 120 70 81
-0.08577372 -0.05354538 0.18733613 57 41 52
-0.09718924 -0.045757867 0.23415568 123 108 127
-0.28099662 -0.14400521 1.7560179 58 28 38
-0.055545647 -0.056219198 0.09668429 70 59 75
-0.8502519 0.024568092 -2.5646162 145 94 113
-0.6801366 0.22809781 -3.53441 146 118 133
-0.3916709 -0.5603062 7.359531 54 21 32
-0.70241 0.098046586 -2.8723865 152 105 125
-1.5037874 0.07924965 -2.7887924 155 167 207
