ply
format ascii 1.0
element vertex 696
property float x
property float y
property float z
property uchar red
property uchar green
property uchar blue
end_header
0 0 0 255 0 0
0.9718886 -1.036124 2.9028022 206 206 0
-0.19733794 -0.18068562 0.3026952 207 207 1
-0.20606276 -0.1813718 0.28534383 207 207 1
0.765082 -0.84223664 2.5064983 206 206 0
0.9852474 -1.048873 2.9282854 207 207 1
0.9270363 -0.99432755 2.818435 206 206 1
0.70836544 -0.7866886 2.3911927 206 206 1
0.8265851 -0.903147 2.63146 206 206 1
0.9448379 -1.010441 2.8512106 207 207 1
-0.14637761 -0.17668422 0.4058055 206 206 0
0.9220646 -0.99017954 2.809857 206 206 0
-0.114634216 -0.1749034 0.47121948 206 206 0
-0.025977964 0.0834341 0.81611204 191 207 1
-0.024635052 0.08160233 0.81834084 207 207 1
-0.021092856 0.07700697 0.824523 207 207 1
-0.022401996 0.07872638 0.82223076 207 207 1
-0.017316446 0.071754806 0.8310589 207 207 1
-0.02026813 0.075691015 0.82579887 206 206 0
0.00068389776 0.044802874 0.86406845 206 206 0
-0.0047201496 0.053410117 0.85399485 207 207 1
-0.01222399 0.064537294 0.84014094 206 206 0
-0.059509464 -0.20836638 0.6164965 1 206 1
-0.060674656 -0.21025746 0.6238398 0 206 0
-0.06173146 -0.2113776 0.6313955 0 206 0
-0.06461209 -0.21535824 0.65454686 1 207 1
-0.06811218 -0.2209977 0.71922874 0 206 0
-0.06772279 -0.2223246 0.68418694 0 206 0
-0.065668754 -0.21671008 0.66540676 0 206 0
-0.072523244 0.043067224 0.6699122 0 206 0
-0.06893697 0.034413755 0.6797231 1 207 1
-0.07203581 0.041817613 0.6711347 0 206 0
0.08292129 -0.35986662 1.3248228 206 206 0
0.084601246 -0.35838825 1.325172 207 207 1
0.09549445 -0.3506369 1.3297471 206 206 0
0.07837011 -0.37601048 1.3399432 206 1 1
0.077662595 -0.38377744 1.3494039 207 1 1
0.07582308 -0.38640204 1.3504895 207 1 1
0.0632673 -0.43384507 1.4003209 207 1 1
0.06650241 -0.982567 2.239063 206 0 0
0.07104884 -0.9305409 2.1660676 206 0 0
0.06730198 -0.9763454 2.2305622 207 1 1
-0.149704 -0.1959953 0.38644993 1 1 1
-0.18226181 -0.19101942 0.32469246 0 0 0
-0.11460337 -0.2029945 0.45384923 1 1 1
-0.080080494 -0.21144652 0.5209685 1 1 1
0.51921594 -0.55407506 1.795962 1 1 1
0.35499492 -0.42867157 1.4290457 0 0 0
-0.038022842 -0.22258167 0.60452604 0 0 0
0.40813813 -0.4669629 1.5466051 0 0 0
0.46348935 -0.5091939 1.6702858 0 0 0
-0.006469218 -0.2344969 0.666681 0 0 0
0.7573203 -0.7717078 2.3437536 1 1 1
-0.21495536 -0.18756832 0.2634081 1 1 1
0.20497039 -0.33327 1.1040473 1 1 1
0.57593155 -0.6021289 1.9248194 1 1 1
0.15913834 -0.3081018 1.0070404 1 1 1
0.81873685 -0.83470696 2.4874747 0 0 0
0.032725334 -0.24931256 0.74571586 0 0 0
0.6370122 -0.6570127 2.068149 1 1 1
0.9417903 -0.97010195 2.7777581 1 1 1
0.45828912 -0.51225334 1.6269162 1 1 1
1.0000806 -1.0392737 2.9167519 1 1 1
0.8805331 -0.9010553 2.6327763 1 1 1
0.031049594 -0.26632342 0.730868 0 0 0
0.22598858 -0.36128843 1.130837 1 1 1
0.7233738 -0.7271783 2.2115798 1 1 1
0.25239068 -0.36133036 1.2055775 1 1 1
-0.13263673 -0.21430105 0.40967435 0 0 0
0.4387964 -0.5039508 1.5677769 1 1 1
0.69589823 -0.7115692 2.2009292 1 1 1
-0.006311634 -0.26192713 0.6501454 1 1 1
0.073445514 -0.26644439 0.8288673 1 1 1
0.11567541 -0.2860516 0.9161479 1 1 1
0.34962404 -0.426615 1.4135047 1 1 1
-0.26580924 -0.2147904 0.14222974 1 1 1
0.3490783 -0.40040886 1.5174128 206 206 0
0.046794422 -0.2799674 0.7576934 0 0 0
0.15707578 -0.3612312 0.9551671 1 1 1
-0.12665397 -0.22176808 0.41742584 0 0 0
0.22080721 -0.3182816 1.1672318 206 206 0
0.7953537 -0.7880894 2.3501508 1 1 1
0.3015993 -0.3925526 1.312081 0 0 0
0.23247494 -0.31827903 1.2040253 207 207 1
0.5099274 -0.55338216 1.7257013 1 1 1
0.57287043 -0.60966957 1.9905528 207 207 1
0.5586193 -0.60198 1.9829923 207 207 1
0.07399258 -0.23777653 0.85037225 207 207 1
0.3862514 -0.4389851 1.5440668 207 207 1
-0.19176343 -0.19146463 0.305641 1 1 1
0.25913146 -0.3868249 1.1925602 0 0 0
-0.15891023 -0.19621323 0.36773637 0 0 0
0.4602124 -0.50748897 1.658073 1 1 1
0.46374282 -0.5114044 1.7801099 206 206 0
0.17980462 -0.27288088 1.0993454 207 207 1
-0.16030613 -0.19638476 0.36481494 0 0 0
-0.12288087 -0.2030638 0.43671885 1 1 1
0.561956 -0.59875536 1.8029908 0 0 0
-0.08845372 -0.21172747 0.5031324 1 1 1
0.035342094 -0.29227692 0.7235472 1 1 1
0.4041474 -0.46506387 1.5342939 1 1 1
0.3499066 -0.40715015 1.4705182 206 206 0
0.057479616 -0.22322497 0.82073265 207 207 1
0.5215432 -0.56208694 1.8831363 207 207 1
0.19558094 -0.2966336 1.1184312 207 207 1
0.51595396 -0.5516671 1.7840539 0 0 0
0.5748906 -0.6009786 1.9162419 1 1 1
-0.014264748 -0.23437354 0.649487 0 0 0
-0.088235684 -0.21133204 0.5038283 1 1 1
0.35009733 -0.42660606 1.4152743 0 0 0
-0.26161805 -0.19928849 0.16407382 1 1 1
0.46071228 -0.5077045 1.6601273 0 0 0
-0.052258834 -0.22149071 0.5743695 0 0 0
0.015252431 -0.22169593 0.72341394 207 207 1
-0.07165625 -0.22293665 0.5319917 1 1 1
0.75737506 -0.7696771 2.336823 0 0 0
-0.012903638 -0.23431125 0.6525326 0 0 0
0.57398623 -0.60024124 1.9153636 1 1 1
-0.058684748 -0.20748577 0.56889826 207 207 1
0.094760925 -0.28578675 0.8656093 1 1 1
-0.04407345 -0.20884435 0.59959203 207 207 1
0.6341125 -0.6531286 2.0525596 1 1 1
0.42379233 -0.47190523 1.6172564 207 207 1
-0.21477324 -0.1943419 0.2584906 1 1 1
0.7762572 -0.7812685 2.3554978 1 1 1
0.24711752 -0.3415226 1.2168007 206 206 0
0.8827979 -0.89981306 2.629544 1 1 1
-0.22770615 -0.18835682 0.23830368 0 0 0
0.15221895 -0.3070443 0.9902242 1 1 1
0.4724191 -0.5130839 1.7348338 207 207 1
0.51760525 -0.5544169 1.7721416 1 1 1
-0.013454779 -0.2093903 0.6664392 206 206 0
0.52247393 -0.55782443 1.8487229 206 206 1
0.9498023 -0.9733706 2.7848723 1 1 1
0.46617216 -0.50836855 1.7019745 206 206 0
-0.051193405 -0.19961348 0.5896979 207 207 1
0.67182636 -0.7071638 2.2141316 207 207 1
0.62102944 -0.65259373 2.0843284 207 207 1
-0.11468452 -0.18433736 0.46522757 206 206 0
-0.22384274 -0.18834868 0.24570511 1 1 1
0.087999165 -0.25240153 0.87388 207 207 1
0.16691783 -0.29297397 1.0417157 206 206 0
0.3339656 -0.40172443 1.4113038 206 206 0
0.7323962 -0.770787 2.3560715 207 207 1
0.6986001 -0.71241903 2.1993299 1 1 1
0.29001996 -0.39261082 1.2752191 1 1 1
-0.04018059 -0.23455706 0.5926748 1 1 1
0.7897157 -0.8235644 2.4690542 206 206 0
0.29034355 -0.3692144 1.3155 207 207 1
0.12902156 -0.27067563 0.96213394 206 206 0
-0.1471725 -0.20461297 0.3860263 1 1 1
0.18685101 -0.31078705 1.0780957 207 207 1
0.007783426 -0.2493522 0.6892736 0 0 0
0.56941915 -0.5991728 1.9424139 206 206 0
0.39953083 -0.46583447 1.5120589 1 1 1
-0.29606944 -0.20489381 0.09275962 0 0 0
0.8223429 -0.8348967 2.4861646 1 1 1
0.026229883 -0.24884811 0.7311998 0 0 0
0.13376886 -0.3065111 0.9443202 1 1 1
0.15271212 -0.3067692 0.9917265 0 0 0
0.1872479 -0.33237118 1.0573907 1 1 1
-0.18963769 -0.19898947 0.30446666 0 0 0
0.9099562 -0.91623694 2.6624432 0 0 0
0.06625685 -0.26596615 0.812262 1 1 1
0.6458537 -0.6613492 2.0594065 0 0 0
0.3392733 -0.42589244 1.3784199 0 0 0
0.5790185 -0.60430986 1.9043884 1 1 1
-0.0454643 -0.20890878 0.59654033 207 207 1
0.19878568 -0.3317081 1.0888504 1 1 1
0.94574285 -0.9698914 2.7776234 1 1 1
0.8446696 -0.84626967 2.5047212 1 1 1
0.1076175 -0.28431466 0.89776325 1 1 1
0.031001834 -0.23491941 0.75104773 207 207 1
0.46555102 -0.51299644 1.662623 1 1 1
0.36468694 -0.42819014 1.4703074 207 207 1
0.24720116 -0.36041576 1.1915182 0 0 0
0.6963104 -0.71058095 2.1955874 1 1 1
0.06630804 -0.26545575 0.812736 1 1 1
-0.10837759 -0.1921419 0.47340873 206 206 1
0.7007588 -0.7148403 2.2060528 0 0 0
-0.009967475 -0.22033533 0.6675511 206 206 0
0.95098346 -0.9760674 2.7903554 0 0 0
0.81996846 -0.83311635 2.4825144 0 0 0
0.67957795 -0.706149 2.203893 207 207 1
0.2954594 -0.3901606 1.2961049 1 1 1
0.5735423 -0.60449356 1.9624244 207 207 1
1.0041162 -1.0843688 2.9912305 1 1 1
-0.09264097 -0.19186866 0.5063188 206 206 0
0.7100085 -0.7206678 2.2136235 1 1 1
-0.029670509 -0.20924492 0.6307443 206 206 0
0.47217685 -0.51302946 1.7239466 206 206 0
0.20009242 -0.31485015 1.1106261 206 206 0
0.7864921 -0.8268373 2.4770753 206 206 1
0.04523556 -0.23656465 0.78293294 206 206 0
0.24608824 -0.3592933 1.1897063 1 1 1
0.5156473 -0.5507108 1.8154603 206 206 0
0.6809949 -0.7115325 2.2202077 206 206 0
0.18431646 -0.3097927 1.0721813 207 207 1
-0.024384165 -0.2179929 0.63709646 207 207 1
0.061475314 -0.26786897 0.79976386 0 0 0
0.37479582 -0.43393192 1.4995255 207 207 1
0.10610898 -0.2680767 0.9065605 206 206 0
0.58398044 -0.60847396 1.9274358 1 1 1
-0.09800114 -0.2129886 0.4823329 1 1 1
-0.023124494 -0.23529994 0.6294242 0 0 0
-0.059301604 -0.08468356 0.62954986 1 207 1
0.14893904 -0.30917826 0.98002297 0 0 0
0.8383691 -0.846204 2.5087922 1 1 1
0.4115945 -0.46430904 1.5757456 207 207 1
0.3487042 -0.42867792 1.4057841 1 1 1
0.22619422 -0.33611384 1.1607233 206 206 0
0.46383575 -0.5065039 1.6955202 207 207 1
0.56779414 -0.5975119 1.9372652 206 206 0
0.28639808 -0.3698385 1.3004547 207 207 1
0.120637365 -0.2712243 0.9403459 207 207 1
0.73362184 -0.76176333 2.3317065 206 206 0
0.78898954 -0.82193077 2.4653423 206 206 0
0.7962348 -0.82687944 2.475487 206 206 0
0.7396189 -0.7657607 2.3394415 206 206 0
0.24733615 -0.36386862 1.1875395 1 1 1
-0.1436418 -0.18606173 0.40515947 207 207 1
0.27430865 -0.36465082 1.2687156 207 207 1
0.50988835 -0.5456466 1.7971733 206 206 0
0.22628194 -0.33456996 1.1628865 207 207 1
-0.17103375 -0.19791868 0.3422692 1 1 1
0.8974955 -0.9481047 2.7293582 207 207 1
0.02746694 -0.23409311 0.74346447 207 207 1
-0.1121363 -0.1919112 0.46578002 207 207 1
0.14304104 -0.28722382 0.98405504 206 206 0
0.8447613 -0.88541806 2.6008372 207 207 1
0.55660576 -0.58670557 1.9048302 206 206 0
0.3624661 -0.42681846 1.4644659 207 207 1
0.62276256 -0.6493669 2.0670092 206 206 1
0.10324897 -0.26721367 0.90016925 206 206 0
-0.1481842 -0.18700463 0.3953884 206 206 0
-0.057886906 -0.101375535 0.6097707 1 1 1
-0.059446115 -0.083666034 0.6161946 0 0 0
0.45509866 -0.4997698 1.6708452 207 207 1
0.6775434 -0.7035868 2.1973033 207 207 1
-0.15475033 -0.18628338 0.38267627 207 207 1
0.4029083 -0.45845664 1.5519979 206 206 0
-0.058665566 -0.092321485 0.6129739 1 1 1
-0.07274064 0.030971864 0.6558976 1 1 1
-0.058681484 -0.093961135 0.6269693 1 207 1
0.31574705 -0.39317864 1.3598623 207 207 1
0.06503682 -0.2496673 0.8206472 206 206 0
0.36446545 -0.429264 1.4661216 207 207 1
-0.06639054 -0.018164534 0.639089 1 1 1
-0.061217047 -0.065291785 0.62230814 1 1 1
0.3542493 -0.42201048 1.4425858 206 206 0
-0.07003323 0.010860517 0.6490357 1 1 1
-0.068758465 0.0011231799 0.64583653 0 0 0
0.9078623 -0.95602506 2.746021 206 206 0
-0.07946198 -0.19947794 0.5294429 206 206 0
0.27123678 -0.36302105 1.2613236 207 207 1
-0.056515403 -0.11886269 0.6039292 1 1 1
-0.17851174 -0.18281464 0.33787513 207 207 1
0.062470235 -0.2504935 0.8140103 207 207 1
0.560621 -0.59037274 1.914779 206 206 1
0.41445562 -0.46719995 1.5791044 207 207 1
-0.09272961 -0.19861391 0.5020495 207 207 1
0.85333425 -0.89149535 2.6136217 206 206 0
-0.0652489 -0.027897421 0.6356713 1 1 1
-0.057157047 -0.1103035 0.6066121 1 1 1
-0.055310924 -0.13608998 0.59795576 1 1 1
0.18357694 -0.31109434 1.0688385 207 207 1
-0.06034582 -0.07413062 0.6191651 0 0 0
-0.06752773 -0.008746126 0.6424048 1 1 1
-0.059132144 -0.08631299 0.6329302 1 207 1
0.14134175 -0.2881738 0.9788594 207 207 1
-0.060177885 -0.075672016 0.6207732 1 1 1
0.6827765 -0.7071961 2.2038138 206 206 0
0.8573133 -0.89618117 2.623417 207 207 1
0.10125276 -0.26815125 0.8945511 206 206 0
-0.071376055 0.021037893 0.6525698 1 1 1
-0.120613635 -0.19212586 0.44818884 207 207 1
0.57191837 -0.60074687 1.9422544 206 206 1
-0.062160272 -0.05597684 0.6258822 1 1 1
-0.12546502 -0.1914976 0.4386344 207 207 1
0.2713094 -0.36450434 1.2592392 206 206 0
-0.05356943 -0.17024507 0.58733344 1 1 1
-0.05588787 -0.12745859 0.6008567 1 1 1
-0.05317555 -0.1872979 0.5831551 1 1 1
0.024975343 -0.23504257 0.73715854 206 206 1
0.17693816 -0.3075723 1.0544183 206 206 0
-0.0631409 -0.046727292 0.6291232 1 1 1
-0.05857845 -0.095541656 0.63043076 1 207 1
-0.06418583 -0.037200563 0.6324877 1 1 1
-0.16194065 -0.18703993 0.36779165 207 207 1
0.6278208 -0.65316516 2.0737038 206 206 0
0.13113436 -0.28333935 0.9569346 206 206 0
0.31671813 -0.39507568 1.3595062 206 206 0
-0.07433409 0.041993406 0.65938205 1 1 1
0.019064164 -0.23299046 0.72498727 207 207 1
1.0192986 -1.0978812 3.018253 1 1 1
-0.05431616 -0.15329644 0.5924177 0 0 0
-0.11595305 -0.19284809 0.45732728 207 207 1
0.0015547022 -0.22894458 0.6879962 206 206 1
-0.05337008 -0.17914933 0.5853861 0 0 0
-0.033269424 -0.21710198 0.61816436 206 206 0
-0.054778583 -0.14480926 0.5950982 1 1 1
-0.059574034 -0.082043946 0.6128145 0 0 0
-0.10049417 -0.19768853 0.48638913 206 206 1
-0.07418762 0.04106469 0.6591444 0 0 0
-0.05766964 -0.18112677 0.61721534 1 206 1
0.011722127 -0.23069412 0.70978755 207 207 1
-0.05807221 -0.10517068 0.62822896 1 206 1
-0.061491847 -0.06357546 0.61865157 0 0 0
-0.059936866 -0.07138715 0.6420989 1 207 1
-0.05738238 -0.17276049 0.61823773 0 206 0
-0.2561344 -0.19564618 0.17785789 0 0 0
-0.061441418 -0.06387347 0.61942047 0 0 0
-0.059600174 -0.08171662 0.6121899 1 1 1
0.30577844 -0.38784593 1.3346561 206 206 0
-0.057983473 -0.10820794 0.63297564 1 207 1
-0.0638682 -0.02873444 0.6493171 0 206 0
-0.05786598 -0.09989614 0.6061678 1 1 1
-0.05842772 -0.09794588 0.6342707 1 206 1
-0.0577555 -0.16632557 0.62536377 0 206 0
0.783872 -0.81259406 2.4439678 206 206 0
-0.058000386 -0.107631974 0.63220507 1 207 1
-0.058716495 -0.090824105 0.6094704 1 1 1
0.6191763 -0.6447576 2.0526075 206 206 0
-0.06570093 -0.026580893 0.63253886 0 0 0
-0.057871964 -0.09946171 0.60544413 1 1 1
-0.05317907 -0.15897013 0.58418757 0 0 0
-0.05886176 -0.08921526 0.63734335 0 206 0
-0.07060547 0.011961855 0.64639366 1 1 1
-0.06675198 -0.0174334 0.63654774 1 1 1
-0.056336273 -0.11725958 0.59980905 1 1 1
-0.07331858 0.032192845 0.6539232 1 1 1
-0.07180054 0.02139444 0.650275 0 0 0
-0.0734319 0.032317657 0.6534018 0 0 0
-0.065596245 -0.026984023 0.6330879 1 1 1
-0.057605583 -0.16533732 0.6239769 1 207 1
0.2815535 -0.36970538 1.284294 207 207 1
-0.05630705 -0.11670203 0.59888583 1 1 1
-0.0595228 -0.07983533 0.6359381 1 207 1
-0.055636905 -0.12550098 0.5965417 1 1 1
-0.1338261 -0.19103165 0.42185912 206 206 1
-0.058464196 -0.0975536 0.6309701 0 206 0
-0.058925297 -0.088426255 0.6365839 1 207 1
0.4460252 -0.49296752 1.6462476 207 207 1
-0.07053701 0.011943217 0.64685774 1 1 1
-0.05730995 -0.12130918 0.62181336 1 207 1
-0.062405396 -0.054883488 0.6229017 1 1 1
-0.0679757 -0.0076560383 0.6400054 1 1 1
-0.06924465 0.0022119663 0.6434894 1 1 1
-0.06454438 -0.03596748 0.6297302 1 1 1
-0.06049697 -0.07290489 0.61610055 1 1 1
-0.05713384 -0.16353232 0.61908066 0 206 0
-0.06342685 -0.045678865 0.62627995 1 1 1
-0.06805581 -0.0075365137 0.6394619 1 1 1
-0.054878652 -0.13354845 0.59232974 1 1 1
-0.05246551 -0.16653392 0.5798629 0 0 0
-0.0613755 -0.056629427 0.6402083 1 206 1
-0.05358681 -0.15021671 0.58593845 1 1 1
0.673662 -0.6978501 2.181372 206 206 0
-0.058798812 -0.18574575 0.6253341 1 207 1
0.55190325 -0.5821656 1.8891574 206 206 0
-0.05703991 -0.16208975 0.6184609 0 206 0
-0.057904687 -0.17386864 0.6232127 1 207 1
-0.06350484 -0.045290258 0.6257591 1 1 1
-0.06487224 -0.018917006 0.65221685 1 206 1
-0.05710205 -0.10824006 0.6028793 1 1 1
-0.059977107 -0.07129441 0.64139456 1 207 1
-0.05731579 -0.12515675 0.6245868 0 206 0
-0.054954387 -0.13417634 0.59338754 0 0 0
-0.05372907 -0.15082757 0.5871976 1 1 1
-0.026591426 -0.031628013 0.7430307 0 0 0
-0.117489405 -0.13886796 0.4881881 0 0 0
-0.054332256 -0.14232552 0.5902983 1 1 1
-0.051880047 -0.18379134 0.57603055 0 0 0
-0.05268578 -0.16734056 0.58135086 1 1 1
0.6663301 -0.69027346 2.1628478 206 206 0
-0.06319511 -0.031386547 0.652618 1 207 1
0.35224992 -0.42178637 1.4349422 206 206 0
-0.05806521 -0.17575672 0.62392616 1 207 1
-0.057640858 -0.11832498 0.6304841 1 207 1
-0.05855615 -0.18460612 0.6236863 1 207 1
-0.052242566 -0.17507687 0.57858485 1 1 1
-0.05938191 -0.08047675 0.6389988 0 206 0
-0.1371049 -0.14904764 0.44250554 0 0 0
-0.058898624 -0.07596391 0.6553493 1 206 1
-0.058258496 -0.19070767 0.6174057 0 206 0
0.6330371 -0.65678024 1.9187193 1 1 1
-0.06336576 -0.030476177 0.6520561 0 206 0
-0.11514687 -0.13753474 0.49373952 0 0 0
0.091228046 -0.26383737 0.8733291 207 207 1
-0.06010334 -0.0697163 0.6414401 1 207 1
-0.061409414 -0.18471967 0.66413015 0 206 0
-0.023183566 0.05147479 0.80160236 1 1 1
-0.07957421 -0.20112553 0.5282178 206 206 0
-0.05734987 -0.14699388 0.62702215 1 207 1
-0.060160242 -0.07062899 0.6384995 0 206 0
-0.058128845 -0.14186585 0.6596771 0 206 0
-0.057297815 -0.090624094 0.578937 1 1 1
-0.07337252 0.01480583 0.62944096 1 1 1
-0.05912507 -0.20098358 0.61830616 1 206 1
-0.069254085 -0.017566742 0.601511 1 1 1
-0.062486626 -0.057318073 0.59660953 1 1 1
-0.05178369 -0.12230114 0.5593645 0 0 0
-0.06773698 -0.022332052 0.61331916 1 1 1
-0.05700305 -0.08314315 0.5624741 0 0 0
-0.045701206 -0.15075481 0.53798306 0 0 0
-0.058290515 -0.14909647 0.6800169 0 206 0
-0.058888428 -0.060870588 0.6677141 1 207 1
-0.03027414 -0.043210693 0.7279265 1 1 1
-0.05695357 -0.14284234 0.6208511 1 206 1
-0.059478506 -0.07358072 0.6479574 0 206 0
-0.057587963 -0.11717067 0.62676424 0 206 0
-0.06690652 0.016358143 0.67434067 1 207 1
-0.0673353 -0.027853593 0.6006166 1 1 1
-0.057588995 -0.10126212 0.66186124 1 207 1
-0.05254269 -0.11014404 0.7226336 1 207 1
-0.059355415 -0.19469307 0.6244026 1 207 1
-0.05744863 -0.12833373 0.6298805 0 206 0
-0.07325679 0.008121924 0.61794984 1 1 1
-0.05721235 -0.06446643 0.6819402 1 207 1
-0.05046803 -0.15087537 0.5643221 1 1 1
-0.061644208 -0.020115662 0.6757452 1 207 1
-0.057975225 -0.10553269 0.6470514 1 207 1
-0.061405562 -0.036382202 0.66386074 0 206 0
-0.18676132 -0.16875342 0.331966 0 0 0
-0.065085456 -0.012084447 0.6582799 1 207 1
-0.0569779 -0.09431345 0.67418265 1 207 1
-0.057767287 -0.11576592 0.64927953 0 206 0
-0.13170056 -0.19235027 0.42535347 206 206 0
-0.073581815 0.024385573 0.6423753 1 1 1
-0.06823832 0.011014741 0.6612032 1 207 1
-0.077797204 0.015822807 0.58459616 1 1 1
-0.06748288 0.009168087 0.66405153 0 206 0
-0.062244315 -0.04578542 0.5393282 1 1 1
-0.058518577 -0.09269033 0.64385086 0 206 0
-0.020754829 0.003990967 0.77776307 0 0 0
-0.050143216 -0.08092411 0.66240203 0 0 0
-0.051382005 -0.08891367 0.5246887 0 0 0
-0.062348314 -0.034140468 0.65755653 1 206 1
-0.06146191 -0.06213726 0.58200127 0 0 0
-0.00350405 -0.22717461 0.6777726 206 206 0
-0.057094276 -0.13291895 0.6224035 1 207 1
-0.05774863 -0.13743886 0.67349184 0 206 0
-0.056171175 -0.13686574 0.70434153 0 206 0
-0.05726956 -0.1461167 0.62580556 1 207 1
-0.0551335 -0.049424123 0.7030973 0 206 0
-0.048270114 -0.16675602 0.555441 0 0 0
-0.020787211 0.02802424 0.7925071 1 1 1
-0.0632497 -0.050927907 0.6123882 1 1 1
-0.05815897 -0.05368826 0.67910266 0 206 0
-0.027386792 0.073988706 0.8060059 1 1 1
-0.06817857 -0.013763755 0.6276116 1 1 1
-0.067586616 0.0027948706 0.65652937 1 207 1
-0.06746752 -0.029121948 0.5741668 1 1 1
0.05511118 -0.24761352 0.7986584 206 206 1
-0.057882287 -0.11212477 0.64025635 1 207 1
-0.055440795 -0.093553536 0.5618531 1 1 1
-0.0485871 -0.12219652 0.5386374 0 0 0
-0.061377104 -0.18117416 0.67952156 1 207 1
-0.0604064 -0.18539621 0.6444189 1 207 1
-0.062555656 -0.026195189 0.6637417 0 206 0
-0.05458477 -0.11977044 0.5810068 0 0 0
-0.021850962 -0.0072911456 0.7683799 1 1 1
-0.058830407 -0.08579646 0.59699655 0 0 0
-0.06433531 -0.020566296 0.6548859 1 207 1
-0.059082285 -0.09218803 0.6367108 1 1 1
-0.057388533 -0.15606308 0.62489074 1 207 1
-0.059724603 -0.06453285 0.65456593 1 206 1
-0.057287388 -0.13576838 0.62698466 0 206 0
-0.06093551 -0.011894113 0.6862907 1 207 1
-0.061068606 -0.044682465 0.6591026 0 206 0
-0.052504994 -0.13599753 0.5727164 0 0 0
-0.023899421 -0.020411998 0.7558074 1 1 1
-0.041839313 -0.06805273 0.68788743 1 1 1
-0.058790684 -0.17172538 0.63563764 1 207 1
-0.084065855 -0.11622334 0.57016474 1 1 1
-0.06532004 -0.010930034 0.65774673 1 207 1
-0.065179534 0.004593667 0.67383254 0 206 0
-0.057743024 -0.12360643 0.6443709 0 206 0
-0.03577974 -0.0563913 0.7079813 0 0 0
-0.06589125 -0.009263033 0.6552314 0 206 0
-0.06779292 0.010634779 0.66361153 1 206 1
-0.06553456 -0.033375785 0.6198194 1 1 1
-0.21788551 -0.17790732 0.2655097 0 0 0
-0.058596853 -0.08623511 0.650462 1 207 1
-0.06759738 0.009340047 0.6635073 1 207 1
-0.16150177 -0.15965517 0.38739824 1 1 1
-0.064191036 -0.014201798 0.66281974 1 207 1
-0.025194984 0.06343839 0.80445224 1 1 1
-0.07138426 0.0127042085 0.6417282 1 1 1
-0.058984343 -0.08839778 0.6334893 0 206 0
-0.070686586 0.0043766177 0.63484323 1 1 1
-0.06625129 -0.025675153 0.62724495 1 1 1
-0.06097389 -0.06876383 0.60470587 1 1 1
-0.06180393 -0.06182304 0.61273867 0 0 0
-0.05997845 -0.07600972 0.59777516 0 0 0
-0.06464129 -0.0044529885 0.6690401 1 207 1
-0.057673037 -0.097928725 0.5980077 1 1 1
-0.05876297 -0.1639425 0.64258206 1 207 1
-0.058834825 -0.08988013 0.6367339 1 207 1
-0.057962224 -0.14398143 0.6428324 1 207 1
-0.056651764 -0.10328038 0.58897966 0 0 0
-0.0585326 -0.15583092 0.6470131 1 207 1
-0.05980555 -0.07891196 0.60560185 1 1 1
-0.058692362 -0.08428005 0.6505612 0 206 0
-0.06634646 0.0062898253 0.6682907 0 206 0
-0.05090945 -0.14102973 0.56365234 1 1 1
-0.05742109 -0.12757635 0.6287617 1 207 1
-0.06460734 -0.041387867 0.61338276 1 1 1
-0.060711615 -0.054607287 0.65253204 1 207 1
-0.03513383 -0.055102997 0.7101599 0 0 0
-0.057101518 -0.13464585 0.6229137 0 206 0
-0.020488465 0.016737536 0.78620535 1 1 1
-0.06638561 -0.001098555 0.660608 1 207 1
-0.069802605 -0.00392437 0.6288832 1 1 1
-0.06705293 0.00096731266 0.65821004 1 206 1
-0.06965979 0.02776778 0.6698638 1 207 1
-0.21489711 -0.17710267 0.2718207 1 1 1
-0.09850178 -0.12698181 0.5340087 1 1 1
-0.076035306 0.03785116 0.64469725 1 1 1
-0.07139334 -0.10518392 0.6030994 0 0 0
-0.057005797 -0.1449453 0.62159026 1 207 1
-0.011822161 -0.010225071 0.7900543 207 207 1
-0.023653064 -0.018754829 0.7573602 1 1 1
-0.056932952 -0.1524899 0.61952114 0 206 0
-0.05744906 -0.12462517 0.628215 1 207 1
-0.057646275 -0.13071242 0.63751423 1 207 1
-0.074728765 0.041897245 0.6571353 1 1 1
-0.063864045 -0.04470815 0.61981994 0 0 0
-0.055406183 -0.110044226 0.5810894 0 0 0
-0.061380398 -0.051791456 0.6473937 0 206 0
-0.057905313 -0.15141195 0.6358648 1 207 1
-0.020783871 0.00555785 0.7786518 1 1 1
-0.060362022 -0.19148198 0.63711405 0 206 0
-0.03924656 -0.21525888 0.60624284 206 206 0
-0.042969048 -0.08943619 0.48163158 1 1 1
-0.05765217 -0.13240232 0.6375993 1 207 1
-0.08191045 -0.114583805 0.575606 0 0 0
-0.14028232 -0.15059114 0.43520007 0 0 0
-0.07408717 0.03165694 0.6486491 1 1 1
-0.024828779 0.061642084 0.8041763 1 1 1
-0.06288784 -0.03869019 0.64659107 1 207 1
-0.029809564 0.083901465 0.80662245 0 0 0
-0.04918307 -0.07946523 0.6653207 1 1 1
-0.056022085 -0.11261141 0.59108436 1 1 1
-0.06313116 -0.032447908 0.65197563 0 206 0
-0.05236879 -0.14670883 0.57579935 0 0 0
-0.021673504 -0.0057707196 0.7697078 0 0 0
-0.06887718 -0.005733354 0.634718 1 1 1
-0.021798618 0.040466905 0.79791933 1 1 1
-0.020885386 0.029348534 0.7931018 1 1 1
-0.03786506 -0.060116112 0.70121855 1 1 1
-0.03401717 -0.08270044 0.696325 206 206 1
-0.06927035 0.022313569 0.6666519 1 207 1
-0.027677847 0.07533062 0.80617756 1 1 1
-0.14696756 -0.15409146 0.41967833 0 0 0
0.04911952 -0.24543498 0.7861114 206 206 0
-0.038344275 -0.08746697 0.6840372 206 206 0
-0.057020843 -0.15441734 0.6202978 1 207 1
-0.020429503 0.014871657 0.7851932 1 1 1
1.0222459 -1.105269 3.0305448 1 1 1
-0.0576005 -0.12011517 0.630544 0 206 0
-0.060818184 -0.059960034 0.6440319 0 206 0
-0.05411587 -0.13037395 0.58334804 1 1 1
-0.042736027 -0.06970837 0.68496764 0 0 0
-0.05073856 -0.16139156 0.568409 0 0 0
-0.02623469 -0.030063504 0.7447641 1 1 1
-0.060253404 -0.069521084 0.63852364 0 206 0
-0.030924205 -0.04517166 0.725322 1 1 1
-0.06939054 0.025741845 0.6693649 0 206 0
-0.062341414 -0.041313037 0.6493347 1 207 1
-0.06948357 0.0256036 0.66871685 0 206 0
-0.062187146 -0.0428245 0.6491634 1 207 1
-0.056504406 -0.16761827 0.6112902 1 207 1
-0.06981017 -0.10359048 0.6073601 0 0 0
-0.022024289 -0.058994323 0.737044 206 206 0
-0.023358276 0.052614532 0.80191165 1 1 1
-0.059724215 -0.077268146 0.6357292 1 207 1
-0.021531647 0.038586404 0.79736954 1 1 1
-0.0604422 -0.06745993 0.6383268 1 207 1
-0.08861047 -0.119546734 0.558794 1 1 1
-0.02080052 0.024281112 0.790142 1 1 1
-0.06779099 0.008301403 0.6611861 1 207 1
-0.0268358 -0.06960363 0.71995884 207 207 1
-0.0609226 -0.058862474 0.6440113 0 206 0
-0.13521107 -0.159835 0.43920037 206 206 0
-0.011503236 0.000855963 0.7977262 206 206 0
-0.061574355 -0.050433584 0.6466612 1 207 1
-0.020248868 0.012465395 0.78413576 1 1 1
-0.011993104 0.013880693 0.8047826 206 206 1
-0.030027628 -0.041990645 0.729197 1 1 1
-0.15868074 -0.15849335 0.39370966 0 0 0
-0.024591431 -0.02514082 0.75140995 0 0 0
-0.044021275 -0.07232301 0.6806453 0 0 0
-0.07000866 0.029345004 0.6695127 0 206 0
-0.124581836 -0.14308493 0.47129127 1 1 1
-0.062020127 -0.048279505 0.6437577 1 206 1
-0.020896195 0.034308117 0.7961911 0 0 0
-0.103942744 -0.13098925 0.520468 0 0 0
-0.17041151 -0.16337794 0.36744976 0 0 0
-0.012898052 -0.022802696 0.77977425 207 207 1
-0.064065 -0.022696339 0.6547731 1 206 1
-0.19069014 -0.17002828 0.323469 1 1 1
-0.100644715 -0.12851478 0.52870077 0 0 0
-0.014525708 0.03648947 0.8131973 206 206 1
-0.057525393 -0.11939822 0.62681055 0 206 0
-0.02856268 0.07969588 0.8068995 0 0 0
-0.022182139 -0.012042179 0.7647533 0 0 0
-0.06262396 -0.09580846 0.6270822 0 0 0
-0.026184706 0.06925743 0.8058426 1 1 1
-0.016390443 0.047085635 0.815573 206 206 0
-0.066071495 -0.0033987034 0.66036206 1 207 1
-0.0198421 0.06207359 0.8169896 207 207 1
-0.012847265 0.023992298 0.8091904 206 206 0
-0.022325391 0.046643585 0.80058324 1 1 1
-0.0528891 -0.0853655 0.6539085 0 0 0
0.6054858 -0.63075936 2.0138357 206 206 0
-0.07308439 -0.12435546 0.58805054 207 207 1
-0.017507214 -0.04543669 0.75540465 206 206 0
-0.020869056 -0.00066715706 0.77466136 0 0 0
-0.19667141 -0.17209981 0.31044406 0 0 0
-0.066520184 -0.007160349 0.6528162 1 206 1
-0.02394924 0.057565834 0.8036746 1 1 1
-0.15791833 -0.16835135 0.3884553 207 207 1
-0.18351048 -0.1675164 0.33913413 1 1 1
-0.10741309 -0.14651935 0.50372297 206 206 0
-0.03220817 -0.049578935 0.7198712 1 1 1
-0.075502805 -0.109623104 0.5918753 1 1 1
-0.09507577 -0.14000049 0.532979 206 206 0
-0.027669065 -0.036466625 0.737737 1 1 1
0.97710896 -1.1137245 3.0185184 0 0 0
-0.06369453 -0.11714825 0.612102 206 206 0
-0.06104517 -0.0575755 0.64401877 1 207 1
-0.07649423 -0.12739685 0.5790969 207 207 1
-0.063520074 -0.031243667 0.64959085 0 206 0
-0.06242466 -0.042735048 0.64649206 1 207 1
-0.0632673 -0.03669953 0.645017 1 206 1
-0.024305455 0.059148606 0.8038326 1 1 1
-0.114138275 -0.1503127 0.4876903 206 206 1
-0.15180796 -0.1659866 0.40212753 207 207 1
-0.05807468 -0.090791576 0.6396729 0 0 0
-0.03169311 -0.047846235 0.72203547 0 0 0
-0.10293819 -0.13006745 0.5230793 1 1 1
-0.06259455 -0.04105399 0.6467679 1 207 1
-0.10847944 -0.14729947 0.5010664 207 207 1
-0.096838064 -0.12560765 0.5382467 0 0 0
-0.10655558 -0.13279141 0.51405114 1 1 1
-0.065431796 -0.012342512 0.6552981 1 207 1
-0.027478836 -0.07127942 0.7175342 206 206 0
-0.021510515 0.069150425 0.8176156 207 207 1
-0.22450176 -0.17974222 0.25149927 1 1 1
-0.019507745 0.061085526 0.8171671 207 207 1
-0.015184574 0.039810184 0.8137464 206 206 0
-0.06134407 -0.0527879 0.6465308 1 207 1
-0.03182091 -0.078806624 0.70346105 207 207 1
-0.0118437065 -0.011938756 0.7889422 207 207 1
-0.060312126 -0.067248836 0.64141935 0 206 0
-0.025541557 0.064766206 0.8044706 1 1 1
0.39239335 -0.45207742 1.5222969 207 207 1
-0.062456187 -0.21929646 0.6300259 1 1 1
-0.041697472 -0.0937081 0.6730566 206 206 0
-0.011600503 0.0042469217 0.79962486 206 206 0
-0.014826875 -0.034653205 0.7680718 206 206 1
-0.052396443 -0.10631176 0.64255494 207 207 1
-0.049065944 -0.101999894 0.65224767 207 207 1
-0.06327012 -0.03770212 0.6435431 0 206 0
-0.016155886 0.046053614 0.815472 206 206 0
-0.01258887 -0.019536639 0.782501 207 207 1
-0.01689306 -0.042196754 0.7587579 207 207 1
-0.049158357 -0.10257115 0.65171117 207 207 1
-0.060606547 -0.06231162 0.64396924 1 207 1
-0.049295757 -0.17511314 0.5618609 1 1 1
-0.11106522 -0.14873321 0.4949148 206 206 0
0.8806568 -1.1523035 3.0000668 0 0 0
-0.020629534 0.018191982 0.7867715 1 1 1
-0.05545379 -0.19498305 0.5953718 1 1 1
-0.019038958 0.059264403 0.8171147 206 206 1
-0.031472787 -0.046735212 0.7231805 1 1 1
-0.06564622 -0.008574819 0.657866 0 206 0
-0.06820361 0.015303808 0.66584724 0 206 0
-0.06497552 -0.118325196 0.60869586 206 206 1
-0.011794647 0.011739313 0.8039011 206 206 0
-0.06902821 0.020936867 0.66666025 1 207 1
-0.061251413 -0.05383042 0.64637434 0 206 0
-0.07125564 0.03362798 0.6670642 1 207 1
-0.068771504 0.01929713 0.6665035 1 206 1
-0.06858392 0.018071603 0.6663717 1 207 1
-0.077406466 -0.26065361 0.71007353 0 0 0
-0.012368214 0.016825749 0.80574906 206 206 0
-0.072579734 -0.24715889 0.68378484 0 0 0
-0.013348053 0.027686931 0.8103527 206 206 1
-0.1279221 -0.15663138 0.4558742 206 206 0
-0.06848165 0.01425035 0.6630873 0 206 0
-0.06639284 -0.0034490784 0.65802044 1 207 1
-0.17838088 -0.17458835 0.34397578 206 206 1
-0.06859698 0.015423002 0.6635996 0 206 0
0.99981505 -1.0995902 3.0114725 0 0 0
