ply
format ascii 1.0
element vertex 247
property float x
property float y
property float z
property uchar red
property uchar green
property uchar blue
end_header
0 0 0 255 0 0
-0.38599893 0.41633633 -1.4330224 204 11 11
-0.38512117 0.40408903 -1.466136 204 12 12
-0.3843607 0.39679378 -1.485683 204 12 12
0.085103 0.45734546 -1.0843731 30 132 7
-0.44321296 0.4452584 -1.5959347 171 171 11
-0.7291759 0.6610217 2.4792001 2 95 2
-0.7417519 0.69261086 2.5721502 3 96 3
-0.7544632 0.6817632 2.676394 3 96 3
-0.7325791 0.6438891 2.6011002 3 97 3
0.1875683 0.4529098 -1.3582909 199 9 9
4.0263476 1.7385622 14.632869 136 136 7
0.1870204 0.44271654 -1.3809006 200 9 9
-0.45600903 0.42178652 -1.6619385 169 169 11
3.954855 1.714397 14.428461 136 136 6
0.18756618 0.4512581 -1.361984 200 9 9
0.18682578 0.43377894 -1.400627 200 9 9
-0.46572265 0.4034446 -1.7135603 168 168 11
0.29247838 0.64466226 1.871081 2 81 2
-0.4477258 0.43716133 -1.6186632 170 170 11
-0.46044943 0.41345614 -1.6853822 169 169 11
-0.49094045 0.35677114 -1.844207 165 165 11
-0.44647372 0.43954146 -1.6119392 170 170 11
-1.0578239 0.6248152 -4.4665995 161 161 11
-1.074139 0.6249269 -4.5168843 160 160 11
-0.47597957 0.38397843 -1.7682503 167 167 11
0.29935947 0.6686235 1.952013 2 81 2
-0.5013292 0.33604515 -1.9023485 164 164 11
-0.49876556 0.28751612 -2.700535 161 161 11
0.29986933 0.62528765 2.0985658 2 83 2
0.29474515 0.65451074 1.9791737 2 81 2
0.306531 0.6546844 2.0415864 3 83 3
0.3120487 0.64450383 1.9496578 129 129 6
-1.1914896 0.13720633 -5.211867 153 153 9
-0.42828295 0.37536383 -1.4319568 1 1 1
-0.42772534 0.2884905 -2.7212963 5 106 5
-0.42861173 0.28946814 -2.7157004 4 105 4
-0.41478541 0.30697757 -2.892893 5 106 5
-0.41211426 0.2999859 -2.9348702 5 106 5
-0.44180378 0.38189456 -1.4600174 1 1 1
-0.52149296 0.45618355 -1.591862 0 0 0
-0.4052076 0.283502 -3.0312707 5 106 5
-0.44661513 0.3833245 -1.4576089 1 1 1
-0.55652124 0.3133637 -2.1291833 162 162 10
-0.41643065 0.3634735 -1.3850826 1 1 1
-0.46076742 0.34246406 -1.5477885 1 1 1
-0.4268089 0.40442586 -1.4989446 169 169 11
-0.42151624 0.37090144 -1.4579725 168 168 11
-0.46557087 0.30813792 -1.493475 0 0 0
-0.400903 0.27482408 -3.0810335 5 106 5
-0.477362 0.28774247 -1.5320138 1 1 1
-0.54271597 0.32510445 -1.7223225 1 1 1
-0.43110487 0.3461733 -1.4185874 1 1 1
-0.4616185 0.27228072 -1.6547754 162 162 10
-0.42239353 0.36164573 -1.3893794 1 1 1
-0.41642547 0.37116233 -1.4502186 169 169 11
-0.5035065 0.3340893 -1.638226 1 1 1
-0.7328865 0.25801092 -2.3478308 1 1 1
-0.46735886 0.34378868 -1.5564135 1 1 1
-0.7987981 0.31441724 -2.4272375 0 0 0
-0.73705095 0.27451298 -2.0918183 1 1 1
-0.649804 0.23182525 -2.2052243 0 0 0
-0.6081638 0.27862749 -2.2310333 159 159 10
-0.8274198 0.21450582 -3.2032554 154 154 9
-0.92193836 0.17554113 -3.7596624 153 153 9
-0.4692809 0.3155217 -1.7140844 165 165 11
-1.2947263 0.27952856 -3.7745936 1 1 1
-0.46648145 0.3445539 -1.5548226 1 1 1
-1.0046719 0.4172899 -3.30074 0 0 0
-0.6646049 0.40633145 -2.1904259 0 0 0
-0.60546213 0.45200032 -2.1042147 166 166 11
-1.0160934 0.1626905 -3.2014494 1 1 1
-1.146188 0.19752923 -4.2254534 152 152 9
-0.4663377 0.30530795 -1.6649401 164 164 11
-0.5264686 0.33863017 -1.8558552 163 163 10
-1.0821284 0.10943511 -3.3991175 0 0 0
-0.50907284 0.36587396 -1.6247921 1 1 1
-0.71495193 0.2862083 -2.6812928 158 158 10
-1.5472004 -0.056584947 -6.0632944 149 149 9
-0.7292794 0.34852198 -2.3733616 1 1 1
-0.36701012 0.26683742 -3.5502405 5 107 5
-0.51161134 0.38614315 -1.9089028 165 165 10
-0.83643854 0.24059336 -2.7521086 1 1 1
-0.4424734 0.35706553 -1.4703003 0 0 0
-0.6868495 0.42329007 -2.2982683 1 1 1
-0.44569293 0.35917753 -1.5543303 167 167 11
-1.1060752 0.12168033 -4.1311765 150 150 8
-0.9417742 0.091870256 -3.0868552 1 1 1
-0.49862573 0.40748134 -1.8439771 167 167 11
-0.47412288 0.34390286 -1.5548153 1 1 1
-0.89517766 0.5772037 -3.1645944 163 163 10
-0.5227579 0.3300649 -1.756848 0 0 0
-4.0883474 -0.37833038 -13.332399 1 1 1
-0.6579577 0.41032806 -2.2030005 1 1 1
-0.7665922 0.43794882 -2.6039891 1 1 1
-4.9442477 -0.72148216 -16.361214 1 1 1
-1.265337 -0.15304442 -5.2286716 147 147 8
-0.65353173 0.23072772 -2.2076974 1 1 1
-0.9373783 0.21237704 -3.0908666 1 1 1
-0.56986153 0.31128892 -1.8630303 1 1 1
0.3405384 0.62118816 2.083828 131 131 7
-0.96590024 0.08631197 -3.3114364 1 1 1
-0.5980695 0.21209694 -2.0312605 1 1 1
-0.5727517 0.30754495 -1.8726472 1 1 1
-0.65034384 0.23485363 -2.1963367 0 0 0
-0.7500523 0.17424528 -2.699956 153 153 9
-0.9881488 0.31479093 -3.622628 155 155 9
-1.7460078 0.16619225 -5.9621234 1 1 1
-0.9833493 0.16745049 -3.2619457 1 1 1
-0.890654 0.31671125 -2.9638567 1 1 1
-1.3057194 0.37496617 -4.4622436 1 1 1
-0.444315 0.35409382 -1.4766623 1 1 1
-3.653636 -0.9075842 -13.77372 141 141 7
-1.4849603 0.03991226 -5.5385146 149 149 9
-1.0743728 0.5556157 -3.8823175 160 160 9
-0.9051657 0.03025791 -3.3768134 148 148 8
-1.4275786 0.13547572 -4.914999 0 0 0
-0.82582164 0.51739436 -2.7853725 0 0 0
-1.0056088 0.24609688 -3.6428518 153 153 8
-0.66079974 0.4076537 -2.212574 0 0 0
-0.9331092 0.39475793 -3.1480532 1 1 1
-0.5277267 0.33969256 -1.8580375 162 162 10
-0.43268922 0.36628214 -1.5124491 168 168 11
-1.7569177 -0.047425687 -5.8492317 0 0 0
-0.92590296 0.21505678 -3.0807498 0 0 0
-1.8515545 -0.2101128 -6.9456167 145 145 8
-0.65580773 0.49525768 -2.2867973 166 166 11
-0.78238106 0.23143232 -2.6531327 0 0 0
-1.3017513 -0.2354864 -4.51184 0 0 0
-1.2066071 -0.124954134 -4.0287805 1 1 1
-0.7037084 0.06366618 -2.4051936 0 0 0
-0.93797797 0.35633445 -3.408863 156 156 9
-0.53098094 0.33578098 -1.8628005 163 163 10
-0.9934757 0.48482814 -3.2899077 0 0 0
-1.0722239 0.5492349 -3.8184204 159 159 9
-0.6854976 0.19844553 -2.3243048 0 0 0
-0.6156743 0.17260063 -2.179602 153 153 9
-2.8929381 -0.5047793 -10.922592 143 143 7
-0.5702648 0.38001966 -1.9054449 0 0 0
-1.192179 -0.11098693 -3.9800665 1 1 1
-0.43509156 0.3364573 -1.5267417 166 166 11
-1.0026969 0.47987798 -3.3206935 0 0 0
-1.4266282 -0.16088475 -4.9514027 1 1 1
-1.3876014 0.32673785 -4.985672 153 153 9
-0.61788684 0.22510707 -2.0904675 0 0 0
-0.69969773 0.06935578 -2.3911538 0 0 0
-1.7605712 0.063449554 -5.8990254 1 1 1
-0.70943934 0.48683736 -2.3835802 1 1 1
-3.022692 -0.5088925 -10.513435 1 1 1
-1.0647466 0.29937395 -3.6081204 0 0 0
-0.5082418 0.41488594 -1.7015975 1 1 1
-0.77730733 0.43090972 -2.6352117 1 1 1
-0.63292074 0.3048177 -2.1009352 0 0 0
-1.0422621 0.44648772 -3.5138664 0 0 0
-4.8648686 -0.77626175 -16.769117 0 0 0
-1.1459955 0.10517603 -3.8519795 0 0 0
-0.40178075 0.21495983 -1.6794322 203 15 15
-0.44766092 0.3450332 -1.5747998 167 167 11
-1.1226032 0.46743363 -3.8166916 1 1 1
-1.0198896 0.38622212 -3.647382 156 156 9
-1.2459073 0.12899213 -4.579381 149 149 8
-4.4079666 -0.8999819 -14.769184 1 1 1
-0.6419653 0.14557219 -2.1914592 1 1 1
-0.8185758 0.18787129 -2.7804375 0 0 0
-0.5609696 0.3238454 -1.9887561 161 161 10
-1.1918484 -0.13880186 -4.1026506 0 0 0
-0.6267664 0.42832685 -2.1921923 164 164 11
-0.80828226 -0.14426862 -2.8011851 1 1 1
-1.0759917 0.10470135 -3.8966503 149 149 8
-1.4098582 -0.3441806 -4.8981166 1 1 1
-1.4039553 0.32932657 -5.005542 152 152 8
-0.8948232 0.15120159 -3.0811646 1 1 1
-0.5020595 0.32979688 -1.7766409 163 163 10
-0.60286134 0.18014383 -2.1526942 154 154 9
-0.5352295 0.37773034 -1.8045626 0 0 0
-0.68066305 0.30394638 -2.426512 158 158 10
-0.71388334 0.39766377 -2.396796 1 1 1
-1.0372729 0.4450002 -3.5257018 0 0 0
-0.604946 0.1033228 -2.078461 1 1 1
-0.4208541 0.35956606 -1.4760296 168 168 11
-0.8182899 0.18738312 -2.7821348 0 0 0
-0.4268788 0.34700623 -1.4924119 167 167 11
-0.91301906 -0.030436747 -3.0682874 1 1 1
-0.8089921 -0.09169147 -2.7840917 0 0 0
-1.4521343 0.3220975 -4.9320116 0 0 0
-2.149912 -0.08513101 -7.991296 146 146 8
-0.55402607 0.32632923 -1.9645871 162 162 10
-0.73748285 -0.033814073 -2.511988 1 1 1
-2.1129735 -0.066071145 -7.8532057 146 146 8
-0.47572044 0.3340865 -1.6780418 164 164 10
-0.6896901 0.3763398 -2.2976747 0 0 0
-0.6069736 0.35135368 -2.1433687 161 161 10
-1.4187038 0.23260607 -4.831918 0 0 0
-0.7975186 -0.08267424 -2.7575796 1 1 1
-0.64251417 0.53666586 -2.161033 0 0 0
-0.8884549 0.21540889 -3.1681907 153 153 9
-2.5991354 -0.4188196 -8.821206 1 1 1
-0.4634925 0.32143265 -1.6228489 164 164 10
-0.6329072 0.36223933 -2.227762 160 160 9
-0.90217847 0.4624329 -3.2053447 159 159 9
-0.78322 0.19052917 -2.8044987 153 153 9
-0.55451185 0.31364918 -1.8616629 1 1 1
-0.97920704 0.48224583 -3.2926326 0 0 0
-4.4333873 -1.0458163 -16.573286 139 139 7
-1.1372101 -0.21301746 -4.159961 142 142 7
-0.98831075 0.47719243 -3.3239245 1 1 1
-0.80971587 0.19628458 -2.7526848 1 1 1
-1.5808516 -0.06366969 -5.423551 0 0 0
-0.00941151 0.52620757 -0.49509048 1 1 1
-2.5383604 -0.47017044 -9.434446 143 143 8
-1.0338616 0.37822616 -3.6938484 155 155 9
-1.0234697 0.3846255 -3.656727 157 157 10
-1.527288 0.14563337 -5.524219 149 149 9
-5.787712 -1.2295793 -19.996382 1 1 1
-1.6045455 -0.08028091 -5.5063267 1 1 1
-0.68484986 0.42248306 -2.3019748 1 1 1
-1.2736722 0.044550125 -4.592764 147 147 8
-1.2459534 -0.32881716 -4.548018 139 139 7
-1.4505695 0.32202095 -4.931679 0 0 0
-0.4119062 0.38162056 -1.427078 170 170 12
-1.0611804 -0.04832624 -3.8927426 145 145 7
-1.1659746 0.43164837 -4.1522913 155 155 9
-0.7445806 0.06869038 -2.68171 148 148 8
-1.1414303 -0.21641839 -4.171483 142 142 7
-0.31597638 0.38314095 -1.2762437 0 0 0
-1.108433 -0.060285505 -3.824037 1 1 1
-0.6722041 0.20224369 -2.2882214 1 1 1
-0.45492443 0.38591084 -1.6241049 168 168 11
-1.0385276 0.37500548 -3.6836045 156 156 9
-0.85787004 0.43076193 -3.0483837 159 159 9
-0.44946188 0.3421586 -1.5812933 165 165 10
-1.191772 0.20901264 -4.061574 0 0 0
-0.7400699 0.37092182 -2.499844 1 1 1
-0.9697203 0.41929752 -3.4556973 157 157 9
5.461265 2.0760221 18.856548 0 0 0
-0.79702944 0.23963809 -2.8566546 154 154 9
-0.71728545 0.42214113 -2.5331297 162 162 10
-4.276177 -0.8529959 -14.442437 0 0 0
-3.075408 -0.7756978 -11.272933 141 141 8
-1.3941864 -0.267114 -5.0550146 141 141 7
-0.86592555 0.31448835 -2.964832 1 1 1
-0.7917371 0.39374724 -2.6401293 1 1 1
-1.1819689 0.21243009 -4.043265 0 0 0
4.852953 2.009522 17.954245 138 138 7
-0.443067 0.34565973 -1.5593605 166 166 10
-0.99095005 -0.2969159 -3.4362016 1 1 1
-0.6588215 0.33332866 -2.3248625 159 159 9
