ply
format ascii 1.0
element vertex 1055
property float x
property float y
property float z
property uchar red
property uchar green
property uchar blue
end_header
0.33491704 0.04442379 -0.0911597 115 91 107
0.265091 0.03517707 -0.014333712 96 51 56
0.1754688 0.039463684 0.025024435 87 68 61
0.15712462 0.044117946 0.02793333 131 79 92
0.27718002 0.033684243 -0.023301827 56 26 34
0.3060874 0.047250893 -0.05242078 126 100 113
0.30067295 0.028644573 -0.04430348 104 85 105
0.28299716 0.043133464 -0.029178627 102 76 87
0.32649982 0.05553598 -0.08059063 90 82 97
0.16913912 0.04004306 0.026297081 115 64 73
0.32465544 0.0057532047 -0.073091604 99 74 96
0.11385445 0.028999057 0.031619873 99 82 101
0.05181179 0.0115313055 0.022126619 159 171 209
0.21630073 0.0048191724 0.012918299 114 86 108
0.37046906 0.03276695 -0.20656982 40 50 77
0.11175464 0.037763827 0.030971315 115 100 121
0.36273468 0.052285004 -0.16387346 90 82 103
0.28425047 0.032992125 -0.029122805 111 94 112
0.3359678 0.042859197 -0.09261368 104 78 87
0.35579982 0.011376326 -0.13168952 70 88 128
0.1667766 0.031334702 0.02741431 101 59 69
0.3199477 0.009424079 -0.06647226 125 101 117
0.019503277 0.008662796 0.01023565 154 141 159
0.3573802 0.023229035 -0.13616371 138 157 199
0.34877416 0.03162479 -0.11546862 95 76 95
0.34074894 0.057224914 -0.105330564 99 87 133
0.32240838 0.01324203 -0.06961051 92 69 89
0.2142516 0.052394893 0.011346645 100 53 61
0.32647446 0.027271593 -0.07561316 91 70 85
0.24409197 0.019618683 -0.00027002124 92 55 62
0.07118465 -8.65512e-05 0.026365183 112 121 164
0.19901037 0.048963018 0.01744597 138 95 114
0.345289 0.012563799 -0.10717189 80 63 73
0.33832303 0.011031303 -0.094142795 102 83 103
0.23056322 0.05251915 0.004013668 72 51 58
0.28685156 0.042675406 -0.032486442 126 100 109
0.12296691 0.012907637 0.03198035 112 90 103
0.35094982 0.037251126 -0.121455245 76 56 68
0.33371273 0.04565615 -0.089421086 105 77 91
0.28993583 0.050820317 -0.03662019 77 55 76
0.32384145 0.017867139 -0.07152924 117 92 113
0.32816425 0.0091617275 -0.07791738 120 98 119
0.2819612 0.038465172 -0.027710011 108 88 100
0.29063863 0.049204353 -0.03698111 121 95 108
0.3010818 0.010130441 -0.044467125 112 87 106
0.11212247 0.016609116 0.031852927 81 58 84
0.29536223 0.027306013 -0.038896874 108 95 115
0.05545404 0.0009821937 0.02268137 109 129 180
0.32130376 0.011434541 -0.06817997 101 80 99
0.36044 0.03721651 -0.14820711 145 156 201
0.31642205 0.02654144 -0.06206918 74 53 68
0.35011697 0.03295574 -0.11870831 93 75 87
0.31996158 0.029721243 -0.06684168 117 94 114
0.18304755 0.020575168 0.024228917 43 21 24
0.27178493 0.009793468 -0.018526256 108 81 98
0.29929164 0.059129532 -0.047641214 68 67 81
0.19460265 0.0072297617 0.020811902 67 27 35
0.10612669 0.017353924 0.031562146 164 178 225
0.2736195 0.025663264 -0.019986399 106 77 95
0.31503493 0.05848118 -0.06561457 67 65 66
0.122086585 0.009883688 0.031917665 114 104 131
0.25164813 0.048183247 -0.0069925343 136 85 104
0.283943 0.027361901 -0.028464606 79 55 69
0.18022597 0.058287777 0.021416586 106 74 98
0.3540441 0.028493185 -0.12762171 65 59 93
0.18078443 0.060296305 0.020922603 148 108 132
0.30538988 0.014374362 -0.048928358 107 94 112
0.31729028 0.050550703 -0.066547796 121 103 119
0.3002881 0.027468583 -0.043831754 92 73 95
0.3186225 0.013511106 -0.06460347 94 78 91
0.14449957 0.007756152 0.030763889 107 88 107
0.28988424 0.035447445 -0.03436712 122 99 119
0.13286953 0.017209169 0.031747937 116 94 107
0.15194981 -0.0022186423 0.029382681 113 92 111
0.36014768 0.030214842 -0.14557344 127 140 182
0.12212692 0.05064009 0.02973772 112 60 82
0.3606655 0.01281183 -0.14619078 131 150 193
0.1420609 0.007152507 0.03095692 115 91 107
0.36066806 0.032418955 -0.1477625 127 139 179
0.34382474 0.043308467 -0.10726784 109 94 115
0.10956858 0.04842038 0.02975672 118 105 131
0.18989511 0.06285175 0.017982414 87 61 70
0.2733 0.009773716 -0.019679647 121 92 112
0.2651752 0.011322835 -0.013656941 113 94 113
0.25267693 0.0060833907 -0.005604545 107 79 101
0.16417453 0.009773344 0.028198456 91 70 87
0.3425085 0.052565634 -0.10721992 97 89 112
0.04868449 -0.00017444957 0.020647805 153 180 227
0.26499352 0.012108559 -0.013508928 123 104 123
0.29652613 0.0060719987 -0.04006772 95 80 99
0.33570555 0.048890676 -0.09355969 98 88 113
0.26695746 0.01208728 -0.014904462 87 72 93
0.33491278 0.029930832 -0.088862315 83 63 75
0.3374868 0.046264123 -0.096020736 127 105 117
0.14650223 0.06188472 0.026646711 98 62 74
0.029424096 0.00047731487 0.013967503 127 149 207
0.3053848 0.026498059 -0.049172726 120 90 102
0.024439253 0.00046287448 0.011930938 145 162 208
0.3083105 0.033004064 -0.052924655 131 107 123
0.1551212 0.019337349 0.0296999 129 102 117
0.348399 0.013614695 -0.11365724 99 88 105
0.22400254 0.026444819 0.009720446 57 25 28
0.060791466 0.012483697 0.024562145 95 65 75
0.37074876 0.02621062 -0.20552745 54 77 108
0.3021673 0.034162045 -0.04632469 119 95 111
0.33584264 0.02876362 -0.090300545 99 72 89
0.24892658 0.043108664 -0.004650756 135 81 94
0.3224947 0.020954696 -0.06973506 121 100 119
0.1958385 0.05153563 0.018107772 104 61 68
0.2897872 0.053752825 -0.037053723 104 93 123
0.2500412 0.05755594 -0.007601674 150 107 127
0.13136198 0.056303952 0.028695041 110 78 101
0.35904267 0.013272274 -0.14096197 141 150 191
0.18409719 0.023134721 0.023906747 79 45 61
0.31091696 0.011727798 -0.055217844 107 82 103
0.27799484 0.036615267 -0.024232436 87 69 81
0.25846028 0.006824301 -0.009257552 117 93 106
0.35799015 0.044911344 -0.14272545 66 71 101
0.2790319 0.01755568 -0.024077728 122 95 104
0.33212596 0.027769264 -0.084166616 100 73 88
0.09004381 0.05749326 0.026731228 95 61 85
0.32261065 0.009721591 -0.07001531 95 68 83
0.2686644 0.012145992 -0.016138885 113 98 121
0.08600475 0.039277397 0.028516265 144 161 205
0.16167997 0.046281677 0.026975853 97 69 91
0.36026993 0.018590648 -0.14478536 155 170 213
0.11128467 0.015380678 0.03181625 100 77 105
0.29547644 0.041591167 -0.040409792 83 61 74
0.31646255 0.00836354 -0.062061902 114 85 103
0.33989275 0.017761106 -0.09679395 98 76 99
0.2653376 0.04152278 -0.015176476 107 56 65
0.13875188 0.02473065 0.03128314 83 61 74
0.20779453 0.04838449 0.014438743 134 85 106
0.35677898 0.018294096 -0.13422394 138 160 207
0.13403018 0.017195828 0.031691156 114 90 104
0.30986255 0.042917382 -0.055980965 120 91 109
0.14260593 0.0618419 0.02702576 130 83 99
0.037553288 0.00796747 0.01742798 134 153 211
0.19904986 0.048945725 0.017435277 138 95 114
0.15745653 0.052128334 0.026867073 112 64 76
0.2977203 0.045057453 -0.043161947 96 91 113
0.22025579 0.00061980437 0.010989022 100 85 108
0.23854344 0.007431707 0.002579855 115 96 116
0.351295 0.047731496 -0.12511964 97 88 107
0.27114147 0.021240687 -0.017959885 126 98 121
0.28612882 0.03724375 -0.031173553 112 100 122
0.13294283 0.022769572 0.031676937 106 80 93
0.049308322 -4.122512e-05 0.020846087 132 141 196
0.26811638 0.009341156 -0.015825905 107 82 101
0.3352101 0.03628321 -0.09015591 131 110 129
0.3486865 0.048710868 -0.1192113 98 73 92
0.13762943 0.06343983 0.027111407 88 60 74
0.08697391 0.062018555 0.025526278 73 55 69
0.3104833 0.037750795 -0.05595931 128 104 118
0.25936165 0.01685797 -0.009606593 123 104 124
0.3597153 0.02983199 -0.14409417 134 150 186
0.23586336 0.0042405305 0.0038246969 117 98 117
0.3290217 0.016016299 -0.07897718 92 70 83
0.3030002 0.01759937 -0.046343327 121 103 119
0.36874574 0.04861498 -0.20268585 68 65 86
0.3583015 0.022166159 -0.13879578 110 134 168
0.31415495 0.016825072 -0.05898332 90 69 84
0.12612312 0.030826509 0.031586047 100 81 103
0.34070745 0.035959546 -0.099791266 125 104 121
0.060548123 0.0046112426 0.024228273 170 186 238
0.17469779 0.063333146 0.021790532 116 80 92
0.11388013 0.018388811 0.03190694 123 96 111
0.36580983 0.04892719 -0.17725235 144 139 161
0.30589166 0.009950878 -0.049602512 127 102 121
0.36839008 0.049042646 -0.19842012 88 85 102
0.21774639 0.008324317 0.012475733 143 100 119
0.30241212 0.02547007 -0.0459321 107 86 105
0.06354066 0.009349404 0.025152888 146 135 152
0.30564788 0.04636157 -0.05177149 126 100 113
0.28623667 0.030863937 -0.030685477 129 104 123
0.15727092 0.010321118 0.029318754 102 80 93
0.3392857 0.017389277 -0.095703185 113 90 118
0.11859392 0.037946716 0.0311223 78 69 90
0.34838706 0.03273042 -0.11477662 95 77 93
0.30757603 0.016623545 -0.05132164 100 82 96
0.353711 0.014124378 -0.12608483 43 50 76
0.33455884 0.012625862 -0.0877028 120 91 109
0.20766407 0.05981712 0.012653237 110 80 92
0.25006878 0.0045069926 -0.0040981933 122 99 125
0.054654147 0.0032042717 0.022598624 140 159 215
0.10407914 0.03841322 0.030505273 108 99 130
0.30903158 0.009604669 -0.05312694 123 98 117
0.1459232 0.030395953 0.03043334 114 80 94
0.22527467 0.0037255287 0.00895491 108 89 111
0.32218346 0.038284972 -0.070797294 117 100 119
0.258436 0.044118583 -0.010768813 96 55 59
0.2901739 0.010590097 -0.033813287 90 67 87
0.35260552 0.04267618 -0.12685408 79 77 101
0.1940064 0.02945913 0.020864988 82 47 54
0.28780407 0.012822749 -0.031604234 111 93 115
0.028333817 0.010966269 0.014041355 168 181 223
0.10742755 0.048745837 0.029605081 92 83 110
0.14555825 -0.00026226227 0.030236278 127 100 115
0.28825974 0.03724667 -0.03307674 131 111 123
0.2306444 0.019995337 0.0067843325 81 49 60
0.35557336 0.042696342 -0.13478898 67 87 114
0.22121918 0.006638023 0.010920588 127 95 118
0.13006371 0.010477326 0.031779073 90 77 87
0.3216848 0.0333601 -0.0694917 108 91 110
0.31307963 0.044282217 -0.060034074 89 68 75
0.35768798 0.053428113 -0.14547105 55 65 67
0.02914019 0.011454996 0.014374668 108 92 103
0.13041326 -0.0019810514 0.031131798 127 99 114
0.14667895 -0.002456204 0.029961875 93 75 99
0.35354102 0.046069164 -0.130321 43 39 53
0.13602681 0.050710645 0.029287443 110 62 76
0.24522878 0.058868278 -0.004983834 121 81 90
0.24125497 0.04507173 -0.000486933 127 83 100
0.34517598 0.03756934 -0.10878588 110 82 94
0.14637834 0.033688523 0.030187579 80 49 65
0.035113987 0.0049307058 0.016410556 117 146 204
0.24050088 0.04432108 2.3054647e-05 86 58 70
0.08471342 0.038612846 0.028387595 148 165 211
0.102328144 0.057152346 0.02804119 97 73 99
0.35796943 0.011707004 -0.1378108 122 135 180
0.012690531 0.05456392 0.00406549 39 57 45
0.36764485 0.04701866 -0.18838018 127 130 163
0.34450653 0.053267144 -0.11154169 130 119 136
0.3542441 0.038238768 -0.12993692 114 130 164
0.26532602 0.049244445 -0.016253525 110 59 68
0.28022456 0.03452886 -0.025855666 82 71 85
0.34664127 0.05012183 -0.11507302 106 85 100
0.32217076 0.037446033 -0.07066083 99 76 94
0.28141955 0.00888661 -0.026214208 121 102 121
0.33898163 0.017965669 -0.095165804 95 71 93
0.3328574 0.015361217 -0.08489596 123 105 129
0.1140255 0.056734804 0.028728746 81 62 84
0.3362354 0.014755094 -0.090434134 117 100 119
0.36023483 0.018630479 -0.14467196 155 170 213
0.20760348 0.020950304 0.016590616 95 55 66
0.31313327 0.038522176 -0.05920979 92 72 84
0.06907724 0.05939481 0.022807134 57 64 74
0.16276136 0.063142575 0.024180017 120 78 92
0.34791136 0.037623554 -0.114594795 101 75 86
0.3000972 0.033294823 -0.044085 116 103 121
0.2901367 0.05347365 -0.037323315 70 58 80
0.36015522 0.03023211 -0.14560136 126 138 180
0.11794109 0.0059796236 0.031756457 101 74 93
0.22727513 0.04769304 0.0063174316 130 78 90
0.24977456 0.043977465 -0.0052692 111 62 68
0.1606482 0.0273626 0.028672611 104 54 63
0.20870733 0.049455807 0.013949134 144 105 123
0.27098674 0.023014765 -0.017889878 124 101 121
0.13301279 0.022602933 0.03167746 107 80 95
0.05692608 0.055963576 0.020437315 63 87 74
0.31045708 0.0057119364 -0.054987047 89 69 94
0.12701485 0.009862136 0.031851567 81 67 84
0.26605973 0.022314316 -0.014275601 122 101 118
0.144603 0.005682163 0.030668832 122 97 116
0.3620499 0.034586992 -0.15321037 155 172 215
0.19067673 -0.0015917561 0.021462834 98 83 102
0.34573358 0.036968958 -0.109824136 110 89 106
0.36498502 0.05112544 -0.17420633 100 103 120
0.27637067 0.0074787545 -0.022170251 110 87 107
0.28816262 0.018518396 -0.03188604 122 103 123
0.360756 0.013186563 -0.14647263 154 171 215
0.19151473 0.05013994 0.019629948 110 59 66
0.0828989 0.032846127 0.02855136 152 169 215
0.15442452 0.01848604 0.029800957 117 96 115
0.30858862 0.015010226 -0.052471846 112 91 108
0.20139256 0.053670075 0.01595516 117 73 90
0.051400274 0.05365364 0.019246675 125 114 131
0.2928017 0.02376168 -0.03627494 96 76 88
0.014844036 0.055806365 0.004892262 72 89 83
0.34244424 0.037129555 -0.10327457 126 102 118
0.26654845 0.020070722 -0.014577231 118 93 114
0.31738412 0.006229493 -0.06335607 117 95 118
0.2580541 0.034938987 -0.009520007 93 53 64
0.15233561 0.03718705 0.029250082 78 48 60
0.20834439 0.04771875 0.014322342 96 68 83
0.2828512 0.030844735 -0.027754974 101 83 107
0.29524207 0.01915452 -0.03849493 124 102 123
0.3364222 0.035798375 -0.09213354 73 52 71
0.35633847 0.036155604 -0.13518189 71 69 93
0.088759676 0.017325357 0.029901156 155 172 218
0.13529919 0.016463855 0.0316225 114 86 101
0.36897096 0.048263665 -0.20596077 107 104 123
0.21754782 0.059599344 0.008744634 108 69 87
0.10536548 0.01337641 0.031489562 166 179 231
0.08885072 0.052648686 0.027330128 101 60 74
0.026332054 0.0056227143 0.013029602 120 145 201
0.2838872 0.0111913 -0.02821882 119 95 108
0.2762827 0.04679396 -0.024154935 117 74 93
0.14304835 0.05043289 0.028804881 148 108 132
0.10847513 0.057053063 0.028452544 123 83 107
0.11374542 0.054138485 0.02912507 71 40 56
0.19398606 0.029474707 0.020870375 82 47 54
0.34017494 0.020343224 -0.09734945 92 70 83
0.35269776 0.027420959 -0.12410086 39 37 50
0.32572407 0.029285476 -0.07469646 108 85 101
0.1561513 0.05263979 0.026982658 73 42 47
0.04961101 -0.00029905178 0.020918552 151 170 226
0.21972829 0.019549418 0.011783154 37 18 20
0.36605364 0.0516934 -0.1811716 51 64 72
0.34399676 0.043684717 -0.10770485 119 101 123
0.31044912 0.009054951 -0.054781675 107 76 91
0.23334323 0.009769527 0.005355564 119 84 106
0.28081942 0.018476104 -0.025551323 123 95 110
0.3635853 0.049689118 -0.16608962 147 139 163
0.115255155 0.009869089 0.031847253 128 100 115
0.30136272 0.00682311 -0.04492075 103 88 107
0.32928404 0.012564995 -0.079436466 101 77 99
0.2929655 0.027034469 -0.036581986 76 53 61
0.13764353 0.06340584 0.02711691 92 62 74
0.13013427 0.008716895 0.031724703 111 94 113
0.08091575 0.055620532 0.025698567 94 70 96
0.104125716 0.029359648 0.031124614 152 170 210
0.17291346 0.0060159564 0.026373878 123 105 127
0.29652068 0.018790739 -0.039739266 124 100 114
0.26642773 0.030614622 -0.0149261225 142 94 110
0.34435925 0.04592218 -0.10901046 119 107 131
0.15772521 0.054135557 0.026530355 106 74 97
0.1406552 0.022696756 0.031197222 109 85 99
0.3492911 0.009886263 -0.11581213 36 27 32
0.117675036 0.063805014 0.027564274 104 71 88
0.12013427 0.06403065 0.02754442 106 75 90
0.34954962 0.01616409 -0.11614843 63 51 61
0.35917637 0.02122889 -0.14140685 123 134 179
0.29506662 0.047508657 -0.040928543 94 82 106
0.18082146 0.055617675 0.021715024 104 74 98
0.20465666 0.061425246 0.0134548405 112 74 87
0.25476876 0.039589327 -0.007849358 115 81 98
0.34116325 0.030161867 -0.099848606 88 65 85
0.16395961 0.019966807 0.028322145 108 64 79
0.3549477 0.02439324 -0.12954408 59 65 87
0.2885232 0.006226186 -0.03251357 102 80 103
0.04642584 0.010954359 0.020489745 178 194 245
0.3273335 0.036802106 -0.07788191 129 108 127
0.14793298 0.047188863 0.028743451 129 82 98
0.33000726 0.036980715 -0.08192459 83 64 86
0.30582297 0.025592683 -0.049603008 121 90 105
0.328167 0.009160571 -0.07792151 120 98 119
0.3258581 0.01557025 -0.07436426 108 85 101
0.097558804 0.049774963 0.028722348 146 114 138
0.33999273 0.025834415 -0.097298026 110 81 99
0.30582556 0.047519602 -0.052178204 80 71 90
0.088373266 0.04933233 0.027726445 97 59 84
0.30068782 0.017350784 -0.04392631 84 70 87
0.20519455 0.03430255 0.016857639 100 57 64
0.12889616 0.06349182 0.027529925 85 57 71
0.08874757 0.036654234 0.029115835 40 48 67
0.123022825 0.036477517 0.031249253 100 92 116
0.26511812 0.042016085 -0.015081017 147 100 116
0.27480775 0.029980004 -0.021144804 144 99 120
0.12482778 0.00018953392 0.03143042 110 90 115
0.21014103 0.0336757 0.015075703 106 58 70
0.23082016 0.048607815 0.0044786357 121 75 85
0.26716438 0.0068114144 -0.015248343 112 87 106
0.30387306 0.02903773 -0.047699366 104 85 105
0.20491578 0.049236607 0.015374427 104 62 82
0.25765038 0.017712625 -0.008483623 127 104 122
0.26623085 0.0057840175 -0.01463342 114 95 114
0.30353484 0.05283213 -0.05071454 109 90 112
0.3137841 0.051300928 -0.0622775 92 74 98
0.35958523 0.02948478 -0.1436161 119 132 177
0.3359165 0.03215968 -0.09078492 114 91 111
0.12985319 0.061793767 0.02781401 125 84 98
0.090407126 0.038995165 0.029130707 37 41 66
0.21950795 0.05423642 0.008848733 92 64 86
0.34017807 0.034826163 -0.09863834 90 71 91
0.07317051 -0.0014640301 0.026663713 164 177 229
0.24668494 0.058890693 -0.0058426987 119 79 88
0.32657522 0.04752476 -0.078700185 118 95 105
0.33927462 0.039681092 -0.09781276 109 82 97
0.35754812 0.039908547 -0.13970426 84 93 124
0.019483099 0.008663523 0.010226681 154 141 159
0.28328037 0.031378202 -0.028160244 101 79 102
0.36313486 0.051192854 -0.1649703 97 95 116
0.19336383 0.023171462 0.021305932 65 32 43
0.2242902 0.03620651 0.008973111 97 51 61
0.36420572 0.050881524 -0.16989678 124 121 138
0.36017263 0.013620496 -0.14452563 136 149 194
0.3039113 0.033588354 -0.048124634 118 103 122
0.33429095 0.056269336 -0.093242325 108 100 124
0.26842096 0.026323125 -0.016121343 106 85 104
0.3359897 0.014610869 -0.090023555 125 108 126
0.2992739 0.0155812185 -0.042485148 116 98 120
0.17563333 0.018665785 0.026022071 103 56 62
0.34730378 0.038133614 -0.11337485 112 88 102
0.08526343 0.047814798 0.02748607 130 151 194
0.10501944 0.022974517 0.03142034 161 178 224
0.3651757 0.049826797 -0.17427392 125 122 143
0.12085402 0.023737794 0.031926822 109 88 107
0.31770402 0.043751277 -0.065730445 91 66 70
0.15416497 0.058061115 0.026407361 81 49 72
0.32646862 0.052324064 -0.07968259 119 102 121
0.18111543 0.05082886 0.022365471 112 59 69
0.11488327 0.061218325 0.027987525 80 47 56
0.0940371 0.0015534558 0.030058065 52 66 95
0.12160415 0.056061413 0.028941253 103 56 72
0.12085178 0.055799846 0.02898253 114 67 83
0.32887322 0.057957325 -0.08492683 68 56 66
0.35872525 0.020653509 -0.13998951 130 148 186
0.34765863 0.025151236 -0.11232477 98 73 94
0.25003543 0.058002513 -0.0076848348 159 117 141
0.045407157 0.05666313 0.01691068 69 87 71
0.23334654 0.05618259 0.001999172 115 72 89
0.028141983 0.0049830796 0.013732692 120 146 203
0.26442498 0.012499828 -0.013101492 114 87 102
0.13851193 0.056260586 0.028304365 130 89 107
0.2827096 0.006298391 -0.027426375 133 112 131
0.1976182 0.005220206 0.019773753 114 89 111
0.28869691 0.047698546 -0.034923807 68 50 66
0.32090265 0.015729811 -0.06754945 126 104 125
0.048846073 0.006216222 0.021069659 134 159 215
0.19957694 0.058715772 0.01572384 145 105 131
0.32943127 0.053470492 -0.08449265 117 102 121
0.3587704 0.039998107 -0.14352353 87 92 132
0.23790736 0.016763989 0.0031221053 105 54 69
0.33563042 0.008038767 -0.08971056 121 96 117
0.31808195 0.0133036375 -0.06391512 115 96 118
0.20401642 0.049018238 0.015725058 144 105 123
0.36043787 0.019959917 -0.14538 151 169 209
0.32216403 0.04627509 -0.07215182 128 110 126
0.08450753 0.032604672 0.028811539 150 168 214
0.048465453 0.008822943 0.02105699 131 156 212
0.11530837 0.0027214861 0.031543374 126 104 125
0.10472412 0.04288721 0.030122025 105 88 107
0.081036106 0.060751453 0.024848796 98 65 76
0.07311755 -0.0014792376 0.026652163 164 177 229
0.3574971 0.043348443 -0.14064029 83 92 123
0.2907649 0.015886767 -0.03425002 107 78 98
0.11003472 0.060565975 0.027931143 143 100 127
0.32974038 0.009078118 -0.08027947 91 64 83
0.05966791 0.056352705 0.021096164 78 96 82
0.33759427 0.03741077 -0.09441565 121 100 119
0.31449768 0.046089675 -0.062099382 119 95 111
0.090275474 0.046379376 0.02834406 87 96 127
0.34112233 0.028368222 -0.09958579 125 98 115
0.30603877 0.039632514 -0.05115251 127 103 117
0.26641956 0.010833986 -0.014553407 106 85 100
0.32647204 0.05554287 -0.08055106 92 84 99
0.3422075 0.032436844 -0.102094844 109 88 107
0.35698542 0.02860716 -0.1356163 69 73 98
0.19236648 0.030766198 0.02128667 53 29 25
0.3368815 0.043970205 -0.094429605 105 94 111
0.1273129 0.032589413 0.031455632 109 91 113
0.090641834 0.016452672 0.03014022 40 55 86
0.36179006 0.025517128 -0.15046869 155 172 216
0.252208 0.019292144 -0.0050501646 95 58 75
0.15839949 0.03390874 0.02865864 79 41 54
0.3568006 0.013572011 -0.13434243 99 101 152
0.27727085 0.015766652 -0.02266043 114 92 105
0.31591514 0.007921548 -0.06140385 106 88 110
0.23161763 0.010868824 0.0062460196 116 92 124
0.34379095 0.011810858 -0.104224645 119 101 127
0.3492334 0.04221093 -0.11859828 54 42 54
0.25540382 0.018853229 -0.007044907 142 93 112
0.32162732 0.029708553 -0.06905629 115 96 116
0.32972315 0.022092894 -0.08012404 102 75 90
0.3496142 0.048865277 -0.121426605 95 80 99
0.33407748 0.036939174 -0.088378124 122 100 113
0.24800579 0.0488856 -0.004888172 149 103 116
0.35417855 0.031072607 -0.12833698 73 74 118
0.33987188 0.04941847 -0.10118136 93 66 81
0.350568 0.010279878 -0.11868401 44 28 31
0.2985618 0.028607976 -0.04214606 93 72 87
0.30758214 0.00863839 -0.051535722 122 97 119
0.19711891 0.008865676 0.020085402 99 60 78
0.14920714 0.013700457 0.030427529 77 53 66
0.35246703 0.031102758 -0.12401495 79 83 110
0.35200244 0.027643649 -0.12242911 28 23 29
0.30026507 0.025094792 -0.04368103 114 89 108
0.30566707 0.04186903 -0.051060203 123 107 133
0.18880557 0.015862469 0.022710746 106 64 74
0.07037421 0.0022665868 0.026350632 113 117 154
0.37060007 0.02633398 -0.20291547 39 45 69
0.22199574 0.034364715 0.010149134 116 64 77
0.1169319 0.03218308 0.03151787 113 94 116
0.3414611 0.043667804 -0.10272043 51 35 46
0.35035723 0.04623599 -0.12235837 67 53 68
0.31180185 0.037318535 -0.057456814 137 115 127
0.3157559 0.019073313 -0.060960297 109 82 97
0.34764037 0.031139743 -0.11292165 103 85 107
0.094149776 -0.0019822412 0.029825544 52 65 97
0.30482385 0.013184126 -0.04833609 113 94 114
0.16959326 0.062042028 0.023117052 91 59 72
0.22194536 0.0016846508 0.010324595 112 88 112
0.28134108 0.0022656196 -0.02654182 116 89 108
0.30592978 0.054490995 -0.053733252 95 72 90
0.17671575 0.0060815495 0.025541594 122 99 119
0.34963056 0.021471376 -0.116427384 42 31 45
0.3340139 0.015947988 -0.08674714 117 100 116
0.019690799 0.0086919665 0.010320204 154 143 160
0.15151449 0.027889356 0.029937128 85 66 86
0.028952876 0.0056816298 0.014091804 128 153 209
0.25334364 0.021424746 -0.005787108 63 29 30
0.3554906 0.05153207 -0.13781415 107 99 110
0.33686048 0.05567237 -0.09754517 37 46 111
0.12020598 0.015921535 0.03201491 114 96 120
0.3553844 0.014446588 -0.13042644 32 31 39
0.32250664 0.04453416 -0.07228472 109 97 119
0.19175223 0.0036111614 0.02149496 112 83 105
0.36505514 0.04767672 -0.17209193 146 165 207
0.3564989 0.054681055 -0.14231317 38 45 55
0.25220355 0.002817443 -0.005504397 97 79 103
0.30852735 0.0099730315 -0.052538328 94 69 88
0.29108864 0.048194792 -0.037225988 117 96 113
0.33569926 0.016101044 -0.089518785 96 79 97
0.34571803 0.018594146 -0.1079683 105 90 113
0.14054956 0.001154356 0.030770281 126 104 125
0.34134728 0.016612932 -0.09945419 107 88 110
0.1666004 0.00086012867 0.027340472 93 68 87
0.20161533 0.049554028 0.016487904 146 109 127
0.024230594 0.00026012855 0.011828344 153 161 207
0.34585166 0.05014704 -0.11336862 126 109 128
0.34792545 0.050486032 -0.11805532 101 81 93
0.076977216 0.049031917 0.025971357 141 156 199
0.05171729 -0.0005714108 0.021520123 133 160 215
0.09526732 0.022652505 0.030601999 145 156 202
0.29462266 0.029850658 -0.038345344 77 57 69
0.3391669 0.05230959 -0.10070409 91 79 103
0.2917781 0.04437784 -0.037255734 124 94 104
0.36148834 0.02440916 -0.14927335 154 171 215
0.28826207 0.057113588 -0.036355454 111 92 111
0.26659197 0.01196291 -0.014645678 98 74 88
0.12944812 0.028410677 0.031621296 87 73 96
0.33768556 0.026640793 -0.093267255 105 74 92
0.21258244 0.05271879 0.011966505 93 68 89
0.1530112 0.04006936 0.02891125 106 56 67
0.0072735315 0.034481402 0.0038447022 95 102 154
0.27965972 0.002398143 -0.025138028 115 94 113
0.34734303 0.016019857 -0.111339554 95 66 84
0.16224995 0.0072334604 0.028439352 109 91 113
0.11537159 0.0045559886 0.031642742 110 85 107
0.34617093 0.0560314 -0.116123594 113 102 116
0.1573733 0.038965072 0.028411634 78 42 56
0.34918848 0.018873539 -0.115357384 67 50 60
0.11318261 0.021529427 0.031847678 121 97 113
0.32760897 0.045065407 -0.07971366 100 73 88
0.34920356 0.02697746 -0.115863815 91 68 84
0.32092753 0.03177038 -0.06830897 119 92 107
0.12991638 0.010483461 0.0317844 89 76 86
0.32703298 0.024653275 -0.076255254 117 97 108
0.32756624 0.05821214 -0.082986504 69 77 80
0.13447782 0.017081458 0.03166789 124 103 120
0.33799106 0.046568103 -0.09699333 127 96 102
0.28433976 0.026962059 -0.028784448 95 63 76
0.35099813 0.020861156 -0.119534664 26 18 29
0.32580042 0.042180542 -0.076506875 94 70 83
0.28659654 0.029429428 -0.030901954 126 99 116
0.053791545 0.0089698 0.022618812 134 159 216
0.15402152 0.03912498 0.028865743 86 61 83
0.29607356 0.05851945 -0.04419259 79 65 78
0.2841247 0.044164196 -0.030297128 87 65 78
0.16885543 0.04292464 0.02606309 119 71 87
0.22719619 0.04880862 0.0061990847 132 84 100
0.2529832 0.012160184 -0.005570188 109 84 105
0.16508445 0.041726943 0.026892962 76 35 49
0.31980154 0.037945073 -0.06755146 108 80 95
0.33473524 0.049427975 -0.092039265 127 105 118
0.34919435 0.018246127 -0.11536055 100 76 90
0.30725104 0.043335468 -0.053055104 37 74 180
0.21828885 0.015613536 0.012405597 112 70 84
0.35158986 0.010890877 -0.121038064 82 105 146
0.28597566 0.042486664 -0.031682122 110 78 93
0.22390562 0.048014637 0.007835753 137 86 103
0.096063256 0.04970367 0.02858375 140 108 132
0.35411224 0.019360887 -0.12709409 47 40 47
0.119949415 0.023693552 0.031925015 114 93 110
0.12653378 0.00333689 0.03159164 112 95 113
0.29422972 0.014718863 -0.037519407 105 93 117
0.24090451 0.027733397 0.0012496148 69 37 42
0.26656318 0.0200826 -0.014587923 118 93 114
0.18218288 0.0480602 0.022471387 130 88 108
0.31591484 0.008124093 -0.061391883 95 72 90
0.112548396 0.022702454 0.031802207 130 101 119
0.15909275 0.008087176 0.028976291 113 89 111
0.336076 0.030801343 -0.09089914 115 87 109
0.10668222 0.04188398 0.030347303 86 81 104
0.25119272 0.042537533 -0.005953975 86 45 53
0.146208 0.0069920453 0.030568695 82 63 83
0.027178504 0.051767725 0.011021848 133 150 193
0.25118273 0.040693637 -0.00573352 91 60 76
0.27659142 0.017914776 -0.02211837 119 93 104
0.1397634 0.0040335045 0.030996222 116 94 115
0.15234518 0.04913226 0.027979499 100 59 73
0.33489868 0.014739136 -0.08820765 119 100 119
0.34526333 0.047642615 -0.111361854 110 92 118
0.10195409 0.05722689 0.027999971 98 72 99
0.34292564 0.019596297 -0.10246285 104 76 99
0.13595663 0.050796542 0.029279899 111 61 70
0.33171627 0.037970476 -0.08473602 114 96 108
0.3603253 0.022414047 -0.14515221 141 156 199
0.37058097 0.02569858 -0.20223194 48 54 80
0.25392193 0.03572707 -0.0069343033 85 44 50
0.26032022 0.036006495 -0.011120641 123 76 92
0.1686667 -0.0013316207 0.026795436 95 70 89
0.3505262 0.032262765 -0.11954703 83 71 85
0.11695962 0.011481165 0.031922724 119 100 120
0.26837403 0.008034593 -0.016066812 110 83 98
0.2894441 0.042896725 -0.034865394 114 81 92
0.30132318 0.039419927 -0.046044804 105 81 94
0.2588952 0.0046351943 -0.009662067 125 103 126
0.27154118 0.010129028 -0.01833074 125 104 121
0.30158842 0.050129693 -0.048067562 108 100 123
0.09072837 0.0059771393 0.029908437 155 172 218
0.27802542 0.026316028 -0.02348719 124 99 120
0.33567473 0.05273111 -0.09455557 103 98 130
0.23334382 0.056268238 0.0019852638 113 69 84
0.35841355 0.014760103 -0.13899045 130 142 180
0.16320463 0.043317698 0.027056247 134 83 98
0.346801 0.04802039 -0.114767686 88 73 94
0.30145556 0.019410595 -0.044738393 106 84 96
0.3030563 0.057705685 -0.05131109 118 106 120
0.08567543 0.053068504 0.026828494 91 55 69
0.029162789 0.00023414019 0.013846494 101 120 176
0.21013072 0.03398284 0.015057401 119 73 86
0.35501048 0.014622551 -0.12942815 22 22 46
0.15613961 0.048966777 0.027491331 131 90 106
0.11772917 0.06276772 0.0277607 95 62 73
0.36097616 0.052099414 -0.15644257 99 90 111
0.20005031 0.009837751 0.019162174 127 71 84
0.21071684 0.036716055 0.014616893 124 70 83
0.34529048 0.018130084 -0.10709412 111 87 109
0.34775895 0.01368931 -0.112272225 105 87 101
0.15698378 0.012034471 0.029400446 101 80 99
0.28899342 0.035956837 -0.033604622 104 79 98
0.137978 0.022274284 0.031400844 113 95 111
0.3218324 0.013028354 -0.06883816 116 92 116
0.28879446 0.050492946 -0.035504624 79 57 78
0.3368354 0.014138805 -0.09146332 115 97 121
0.17118926 0.013339569 0.026949888 66 34 39
0.09527487 0.0031267926 0.030283283 38 46 67
0.27796054 0.042039435 -0.024831891 100 67 84
0.1232834 0.047212377 0.030172843 75 54 61
0.34115237 0.048751418 -0.10342336 107 80 89
0.31648874 0.042531483 -0.06396743 124 102 115
0.35187012 0.049170833 -0.12705456 71 62 83
0.30419698 0.0076917037 -0.047870453 113 102 119
0.13064714 0.0062926332 0.031614117 120 96 110
0.28199574 0.04765165 -0.02900387 91 73 85
0.32639852 0.045655675 -0.07804361 117 96 115
0.21977572 0.004729342 0.011451966 102 81 100
0.30387926 0.038261093 -0.0486128 102 72 84
0.12098513 0.028594142 0.03174792 103 89 112
0.09260653 -0.0016921749 0.029674046 154 177 221
0.3235634 0.018730886 -0.07115328 125 101 125
0.15382077 0.0331033 0.029359203 73 36 43
0.32295814 0.037244707 -0.071712784 103 80 96
0.032619383 0.0035584897 0.01540418 140 166 217
0.22113581 0.0054805283 0.010901876 111 86 107
0.3231442 0.04418107 -0.07310269 108 88 99
0.07126682 -9.5340074e-05 0.026381388 112 121 164
0.232672 0.0004908697 0.005200184 116 92 114
0.12455286 0.044436336 0.030481862 109 82 97
0.31314096 0.020202229 -0.057793777 118 90 104
0.31433025 0.01904417 -0.059209984 105 77 91
0.34939498 0.019101586 -0.115821876 89 73 86
0.139629 -0.0006001568 0.030722437 124 93 109
0.07103011 0.05440257 0.02404716 24 57 28
0.24952948 0.003391767 -0.0038419429 120 97 123
0.31548867 0.037666436 -0.061984472 120 97 115
0.20970687 0.038368635 0.014856864 83 60 76
0.32955086 0.011765906 -0.07986576 99 72 89
0.358635 0.05428932 -0.14909437 49 59 61
0.35165069 0.03515742 -0.1227166 73 53 64
0.32184935 0.041876208 -0.07090576 132 111 126
0.116170496 -0.0011493221 0.031311415 128 99 119
0.33852962 0.04633788 -0.09790658 130 104 113
0.35925904 0.037347738 -0.14431508 126 148 185
0.34990627 0.013110414 -0.11702178 52 38 51
0.14042018 0.056320846 0.028153399 128 80 102
0.22293654 0.0075200377 0.010200881 134 105 125
0.23683603 0.033517897 0.0030645244 89 65 81
0.36009336 0.011740548 -0.14437748 110 122 162
0.33948672 0.04879947 -0.10029386 113 87 96
0.10687684 0.037875876 0.030728351 96 79 98
0.25148535 0.05736596 -0.008456038 140 96 119
0.35749406 0.011528614 -0.13643213 114 132 170
0.24901344 0.04702198 -0.0052191676 101 68 89
0.35164 0.018282758 -0.12097661 48 36 46
0.30570465 0.0527424 -0.053091228 112 93 113
0.34197533 0.039909422 -0.10289436 95 71 85
0.332818 0.025599072 -0.08510463 122 97 118
0.23398267 0.03984362 0.0039720475 127 75 87
0.35627106 0.035552997 -0.13485375 78 75 106
0.24876504 0.019425012 -0.002971806 115 65 76
0.24234712 0.0029557056 0.00027322714 108 90 116
0.08407735 0.025761425 0.029086076 156 173 219
0.35220838 0.026329689 -0.12278934 26 23 34
0.34582478 0.04468704 -0.11173393 107 82 101
0.2805192 0.015801882 -0.02530014 101 78 88
0.30212516 0.019473774 -0.04543852 101 77 91
0.26220664 0.041480135 -0.012982587 114 60 73
0.308948 0.004717156 -0.053322267 76 58 74
0.056789808 0.013573274 0.02354748 156 172 221
0.29943916 0.011006229 -0.04274858 80 62 76
0.20358194 0.034282323 0.01742948 112 66 77
0.29019967 0.0052145137 -0.034101404 114 98 125
0.12117596 0.036827445 0.03122804 107 90 109
0.36585537 0.050784662 -0.17906652 80 70 94
0.29028425 0.028376086 -0.034159064 97 72 93
0.013088068 0.06546474 0.0021371779 62 72 84
0.26487058 0.035045832 -0.014166478 88 47 53
0.35172117 0.019616526 -0.12119719 34 29 36
0.3499868 0.044496674 -0.12096479 71 51 63
0.29237384 0.052173562 -0.039180268 88 75 93
0.36033222 0.030172529 -0.1461773 142 156 193
0.2622025 0.011494739 -0.011590116 102 75 90
0.29967043 0.043692734 -0.04493657 119 95 108
0.32084808 0.052554827 -0.0717429 115 98 117
0.32774127 0.048889514 -0.080745384 103 87 98
0.1681157 0.0050771525 0.027295964 118 92 117
0.33159778 0.04284476 -0.08540863 105 73 84
0.26873556 0.046697907 -0.018336998 100 70 94
0.30187824 0.023536548 -0.045287058 104 83 100
0.35932472 0.02748198 -0.14247987 129 141 181
0.20216013 0.041762296 0.017253095 89 47 59
0.33728242 0.048198506 -0.09613875 125 102 110
0.34332362 0.05153776 -0.10853338 103 83 95
0.19559014 0.051481154 0.018194072 102 60 70
0.13271041 0.017143534 0.031755365 113 89 103
0.29197896 0.050225466 -0.038431138 80 69 83
0.12406652 0.009943189 0.031904712 83 70 96
0.1525424 0.06005267 0.026277501 155 116 137
0.18633059 0.016211294 0.023393234 94 61 72
0.30557725 0.023733592 -0.04924908 108 83 102
0.33522767 0.044142965 -0.09162388 115 93 114
0.3063622 0.029676842 -0.050456338 98 76 88
0.262075 0.05774747 -0.015499191 156 108 130
0.31958488 0.01935003 -0.065829985 121 96 115
0.20839246 0.017334351 0.016332364 85 42 52
0.3383328 0.011043334 -0.094159454 102 83 103
0.21164864 0.029335886 0.01476643 70 38 41
0.31381258 0.041470643 -0.060465164 44 32 36
0.12434748 -0.0019964483 0.031280328 129 100 120
0.19425856 0.048429094 0.019034535 131 84 104
0.19003321 0.06475004 0.017564947 61 63 75
0.09675568 0.049724303 0.028650707 145 113 137
0.14057484 0.0011080096 0.030765368 126 102 118
0.2918005 0.027726145 -0.035525583 101 79 100
0.26736495 0.04577423 -0.017196847 102 74 97
0.1542085 0.035847496 0.029113308 84 54 66
0.3588687 0.036849614 -0.14293152 89 98 137
0.113038935 0.034932233 0.031237328 96 84 104
0.3625122 0.026667634 -0.1532591 156 173 217
0.083179854 0.032760322 0.0286004 152 169 215
0.33079815 0.049927685 -0.08571493 107 80 95
0.3581804 0.027822692 -0.13900785 91 95 140
0.057986993 -1.9239218e-05 0.02329102 142 163 220
0.2963017 0.05123259 -0.042837545 82 59 85
0.15276387 0.025553236 0.029873384 110 86 100
0.36031917 0.05203197 -0.15390085 75 66 85
0.32090986 0.026697433 -0.06786986 108 90 112
0.33446285 0.017734714 -0.08747633 118 99 118
0.27325463 0.012937741 -0.0195556 121 99 120
0.1317188 0.04765232 0.029905524 115 74 90
0.31027976 0.015137512 -0.05440473 119 101 123
0.26306057 0.008741231 -0.012270314 117 96 113
0.29420137 0.0059006223 -0.037817154 124 100 122
0.17587039 -0.00077059516 0.025330313 105 80 101
0.14620325 0.06363229 0.026350025 120 79 97
0.14297305 0.010240295 0.030981356 116 93 109
0.31991932 0.049022462 -0.069675416 91 72 92
0.2877803 0.020566959 -0.031572275 110 81 99
0.25809544 0.022758804 -0.0088532595 117 98 117
0.36012754 0.026134808 -0.14487804 142 154 196
0.2373678 0.048705347 0.0011174727 123 75 89
0.18757477 0.039690778 0.021980673 106 93 111
0.14794515 0.04728491 0.02873034 128 84 97
0.31528792 0.011466186 -0.06046364 111 97 120
0.08533165 0.026105756 0.02925894 152 168 217
0.20943305 0.03212089 0.015450775 117 71 82
0.14241788 0.006878512 0.03091585 94 71 89
0.07571025 0.055584393 0.024785776 118 75 95
0.32442075 0.02794479 -0.07274647 99 74 93
0.31758103 0.029293852 -0.06372686 103 81 93
0.34121856 0.046270195 -0.10288984 109 83 94
0.19164154 0.020884499 0.02186674 95 52 59
0.15791695 0.038552307 0.028367804 111 64 72
0.14326103 0.00042907134 0.030497648 120 97 115
0.103637174 0.032713294 0.03090091 154 171 214
0.12322016 0.040692583 0.030881666 103 88 107
0.1365421 0.004749583 0.031251147 112 98 115
0.3318436 0.0072608786 -0.083637156 83 73 97
0.23303391 0.05070236 0.0030647062 87 53 54
0.29063436 0.060949307 -0.03946789 67 71 80
0.30639485 0.038487002 -0.051395763 121 91 101
0.24952273 0.034752954 -0.004148244 69 33 37
0.33319923 0.036969796 -0.086951435 107 84 100
0.1866088 0.032224875 0.022835517 112 90 76
0.05081457 0.0025166618 0.021462478 123 150 205
0.27068028 0.03206657 -0.018139772 123 67 76
0.3574677 0.05447417 -0.14528719 22 20 25
0.32928628 0.009456868 -0.07957317 97 73 87
0.14573483 0.032818366 0.03030908 83 55 70
0.36009353 0.035999876 -0.14669389 140 154 193
0.3404815 0.03200311 -0.09880601 112 87 108
0.15970892 0.037397854 0.028192874 123 71 83
0.056548204 0.011590582 0.023446983 178 191 235
0.35030466 0.012723988 -0.1179447 74 67 83
0.30091804 0.010156284 -0.044296563 112 91 110
0.28965354 0.050362475 -0.036273237 112 98 121
0.26885918 0.016471572 -0.01622455 82 60 73
0.3360308 0.019569725 -0.090097666 123 101 122
0.3590255 0.013266666 -0.1409094 138 147 188
0.1572411 0.010330003 0.029323334 102 80 93
0.16643773 0.058141068 0.02442378 113 80 101
0.29954058 0.03233948 -0.04342744 98 73 94
0.044711825 0.0074116224 0.019829554 124 150 207
0.29137182 0.038469166 -0.036076695 87 64 72
0.24606034 0.016123228 -0.0013778353 121 96 117
0.31634492 0.0113209095 -0.061779972 113 96 115
0.16813548 -0.0005259852 0.026956623 117 96 113
0.35918015 0.034337144 -0.1432956 134 154 191
0.0385048 0.0045836805 0.017610699 132 157 213
0.03005751 0.0074731302 0.01460794 124 148 208
0.35052383 0.019350348 -0.11838698 44 38 48
0.29719225 0.017887345 -0.04039525 117 96 115
0.3173232 0.03332872 -0.06377444 70 59 73
0.19843061 0.028516002 0.01951968 101 70 85
0.1581377 0.03690086 0.02847405 99 66 83
0.305179 0.025748614 -0.04890777 114 80 96
0.32029864 0.02165582 -0.06681918 101 76 97
0.3680695 0.048670355 -0.19421683 94 90 117
0.2831558 0.053597644 -0.031064957 98 70 85
0.20218801 0.030217947 0.01817587 64 33 38
0.33834642 0.023358282 -0.09420786 108 84 100
0.3298506 0.055625845 -0.085760266 120 102 118
0.35278732 0.05589314 -0.13215926 47 47 57
0.3171866 0.05058447 -0.06642122 118 97 112
0.35786918 0.01104642 -0.13756117 141 156 199
0.30160055 0.044033013 -0.04700281 23 55 156
0.14646937 0.0474607 0.02886402 103 70 91
0.35206106 0.026488498 -0.122448355 29 28 34
0.14544381 0.0046495805 0.030539379 95 75 87
0.11474371 0.049790427 0.029768478 101 59 73
0.2744937 0.045551896 -0.022551455 99 67 88
0.08458591 0.03843472 0.028384257 146 163 207
0.20225915 0.036456726 0.017718233 97 54 64
0.33281597 0.05048315 -0.089110605 90 72 86
0.32658157 0.041675314 -0.077553205 130 106 120
0.27863026 0.047857653 -0.026224788 100 80 92
0.19598258 0.015446121 0.020577064 111 65 75
0.285823 0.0028248052 -0.030338285 115 101 127
0.26070413 0.015788414 -0.010506016 103 79 101
0.3014645 0.039435156 -0.04619495 109 83 96
0.19600962 0.015440004 0.02056855 111 65 75
0.3390086 0.033254024 -0.096296385 93 69 83
0.07031833 0.05536749 0.02374707 63 75 73
0.17186178 0.050044347 0.024591958 117 85 108
0.3591587 0.05459628 -0.15109746 38 53 50
0.14003769 0.055979777 0.028237216 135 92 112
0.12474458 0.021804841 0.03194739 121 93 107
0.36116463 0.012870601 -0.14787354 128 142 189
0.35928372 0.053004093 -0.15066646 47 50 55
0.20382191 0.06176616 0.013688363 78 55 63
0.36683288 0.050975278 -0.18600945 67 73 71
0.24918233 0.02018207 -0.0032299266 71 31 32
0.24043413 0.00164502 0.0012362789 112 88 110
0.3113792 0.034253895 -0.056598395 123 100 116
0.32361066 0.030662332 -0.07184921 119 97 110
0.17454676 0.060865127 0.022288319 142 95 115
0.16290411 0.037213895 0.027687404 114 63 78
0.014648034 0.055786926 0.004801987 75 90 85
0.30410773 0.028137349 -0.04788991 89 71 83
0.29047877 0.03357534 -0.034735546 99 77 90
0.24175306 0.053622004 -0.0020413396 111 63 77
0.3607867 0.013209652 -0.14657453 154 171 215
0.35009375 0.055742506 -0.12515183 101 92 109
0.29324257 0.043955326 -0.038585003 108 78 88
0.36724988 0.04844497 -0.1866292 122 115 133
0.16401163 0.05053681 0.026031515 108 56 68
0.31551364 0.008996293 -0.060847748 113 86 103
0.167449 0.041069064 0.026523465 116 70 81
0.37066445 0.016898762 -0.20116359 58 85 115
0.2905217 0.06093073 -0.039356463 68 72 81
0.32553858 0.012379826 -0.073976114 117 100 119
0.33682436 0.046021577 -0.094796054 112 94 110
0.23652808 0.003968063 0.0034640757 96 82 105
0.32286033 0.028411373 -0.0706234 100 73 88
0.22841878 0.01222317 0.007825085 82 55 64
0.31188014 0.009732124 -0.05642397 116 91 110
0.17651357 -0.0010340123 0.025165632 123 98 119
0.3252342 0.0065426608 -0.07384845 119 97 118
0.332858 0.014104111 -0.084917806 112 95 114
0.19661662 0.012347528 0.020337705 45 26 32
0.049529254 0.001079455 0.020989597 137 160 214
0.3254197 0.035393562 -0.07491838 102 78 102
0.09224519 0.0054459143 0.030066295 38 56 94
0.12841423 0.048315864 0.029940257 94 58 70
0.34379137 0.04327169 -0.10719204 110 95 116
0.2129438 0.028581027 0.014298145 38 17 16
0.35810116 0.051237077 -0.14575136 73 70 97
0.3348748 0.050869998 -0.09265747 94 70 83
0.15346389 0.027496262 0.029708253 119 83 97
0.17177892 0.06143187 0.022781817 115 82 93
0.35584882 0.026549911 -0.13217722 53 50 81
0.29660538 0.054903466 -0.04390151 93 105 129
0.14861585 0.006993435 0.030314993 107 92 115
0.30315772 0.02672906 -0.046787918 112 85 100
0.30136886 0.024439916 -0.044792462 91 70 87
0.2909144 0.0421552 -0.036122717 125 104 121
0.32175905 0.029670438 -0.06923042 117 95 116
0.32841247 0.043024354 -0.08051789 100 75 96
0.30885154 0.014937673 -0.05277083 113 92 109
0.33764723 0.037394352 -0.09450563 121 100 119
0.3551437 0.012637568 -0.12985553 44 50 66
0.24657358 0.058939036 -0.005786406 115 73 83
0.31570953 0.019080559 -0.060902927 111 83 98
0.3262078 0.046316765 -0.07790136 99 75 89
0.2464216 0.015151035 -0.0015923679 109 87 108
0.23358773 0.028901502 0.005028488 111 64 74
0.2632797 0.050636772 -0.015033603 52 23 27
0.10636544 0.044290062 0.030075192 112 102 126
0.16162255 0.008504061 0.02858979 114 92 115
0.14688939 0.03678524 0.029906979 100 53 61
0.36638632 0.049984396 -0.18181808 120 115 138
0.26475507 0.06505105 -0.019014778 64 74 76
0.26296347 0.01922056 -0.012052013 126 103 121
0.23399374 0.009044336 0.0050032777 139 110 128
0.33733237 0.013938377 -0.09231867 79 55 79
0.26974002 0.024696246 -0.017020538 120 98 111
0.3238575 0.05737842 -0.077238865 111 94 112
0.03785922 0.0071364213 0.017503317 131 153 210
0.22181559 0.02235699 0.0108280135 93 50 57
0.2987005 0.012809208 -0.041948766 118 93 115
0.13038993 0.049767204 0.029687172 74 50 63
0.19651943 0.05740747 0.0169557 100 70 94
0.31583822 0.03499778 -0.062088728 116 93 113
0.27689615 0.013482939 -0.02238889 116 99 118
0.3307457 0.028730348 -0.08209569 117 95 116
0.119984075 0.058705013 0.028505163 96 68 91
0.19602054 0.021646315 0.020523792 132 74 88
0.34345695 0.019363645 -0.10348327 95 72 92
0.12183009 0.029972382 0.031679276 108 94 120
0.28541908 0.049323224 -0.032254007 93 70 80
0.11906141 0.058569778 0.02852164 97 72 94
0.1293946 0.006569474 0.031669892 102 81 98
0.31762967 0.016134264 -0.063298084 87 66 81
0.16671865 0.058098167 0.024378514 115 80 102
0.24461553 0.057734575 -0.004408421 128 79 100
0.34025723 0.05938727 -0.105167404 58 65 75
0.37084606 0.01681408 -0.20411874 144 168 204
0.10902807 0.056087364 0.028635707 120 81 100
0.29187077 0.008237483 -0.035481613 80 59 74
0.34424543 0.04598055 -0.10879332 114 100 126
0.32982484 0.011740804 -0.08028081 98 70 85
0.3521356 0.045699026 -0.1265659 97 85 97
0.3313675 0.031490646 -0.08332857 118 95 113
0.14702448 0.047997184 0.028739724 123 79 96
0.302049 0.034781825 -0.046263255 98 74 90
0.3316948 0.016145762 -0.08305786 113 91 112
0.31883237 0.054603156 -0.06953496 102 89 115
0.072234154 0.057736658 0.023754895 67 76 75
0.36175954 0.03884062 -0.1534293 155 172 218
0.15478237 0.035015773 0.02909824 83 53 63
0.36064535 0.011914991 -0.14618112 133 145 193
0.33043045 0.032580193 -0.08199816 96 79 95
0.15593491 -0.00022895032 0.029001608 102 84 106
0.33606464 0.044275668 -0.0930811 106 82 96
0.14490494 0.046283994 0.029161455 100 67 84
0.35344428 0.044187248 -0.12946399 35 30 37
0.20664942 0.030053925 0.016608257 62 33 38
0.06747883 0.057434384 0.022793172 47 58 54
0.3467067 0.012973869 -0.11006993 84 64 76
0.26830947 0.05800229 -0.020034064 122 81 95
0.33300155 0.03811713 -0.08681209 99 75 88
0.33396992 0.011758745 -0.08677478 118 90 112
0.22276431 0.014541562 0.010459737 64 32 43
0.06719224 0.059954077 0.022291701 64 65 83
0.35659233 0.04770763 -0.13950028 65 81 117
0.15999341 0.027951716 0.028750809 103 55 67
0.25841957 0.0068114316 -0.009231449 116 89 104
0.36053467 0.030745879 -0.14696391 137 155 195
0.352515 0.056111187 -0.13152666 42 41 55
0.058545344 0.055727087 0.020906666 77 88 82
0.31449786 0.027390435 -0.059743967 89 68 87
0.3155969 0.009256742 -0.0609378 114 87 106
0.2664993 0.018057033 -0.014521233 125 95 107
0.15995301 0.011613126 0.028944336 114 87 106
0.31903723 0.05459785 -0.06980679 103 87 114
0.25428888 0.024646215 -0.006471129 133 105 127
0.20891571 0.056950253 0.01269575 123 78 98
0.22311406 0.0075843954 0.010124345 124 95 117
0.20381767 0.039616194 0.016893255 114 64 73
0.29708093 0.008376952 -0.040489644 112 98 124
0.36088154 0.023788467 -0.14712305 154 173 215
0.34071153 0.04329064 -0.10121367 95 67 81
0.095186576 0.057243623 0.027372988 93 59 83
0.14692432 0.032513037 0.030208139 79 47 60
0.32030675 0.056398503 -0.0719914 101 86 109
0.36490104 0.04986881 -0.17279886 109 108 126
0.24079746 0.0013398778 0.0010167706 127 107 134
0.1919466 0.03696609 0.020972703 151 135 112
0.12493041 -0.0016887038 0.031295564 118 90 113
0.25929666 0.02039951 -0.00959199 130 104 115
0.11327359 0.03491882 0.0312459 97 85 105
0.18720137 0.041962747 0.02185757 89 49 57
0.35979742 0.05206311 -0.15200134 78 61 79
0.3602386 0.030401425 -0.14590867 125 137 177
0.266398 0.011840767 -0.014510224 91 69 82
0.023946313 0.0031555784 0.011900267 147 165 213
0.3324605 0.030717058 -0.08496739 123 99 115
0.363754 0.052355252 -0.16869327 80 76 67
0.035290126 0.00011540762 0.016178606 114 122 169
0.16811483 -0.001507052 0.02688857 89 75 92
0.12771267 0.04196158 0.030680843 88 72 83
0.22381257 0.025526468 0.009842498 108 64 81
0.34040233 0.044922754 -0.10101253 123 99 113
0.3178905 0.04062235 -0.065452956 105 78 95
0.13685201 0.013026514 0.03149969 122 99 109
0.34489575 0.020347396 -0.10634564 98 73 92
0.30666125 0.050632406 -0.05372097 120 96 110
0.15862137 0.025846466 0.029047228 100 53 63
0.32923332 0.02690124 -0.07964797 97 74 90
0.3176807 0.018322855 -0.06336666 98 71 86
0.127466 0.057296917 0.02866389 133 86 106
0.1965001 0.0290625 0.020111399 46 20 23
0.34730968 0.026981233 -0.11173705 90 75 96
0.0680839 0.00995006 0.02620422 147 138 159
0.2547231 0.0032112596 -0.007052185 92 74 98
0.3581521 0.05173248 -0.1461562 78 80 101
0.31587496 0.02907053 -0.061562143 108 85 103
0.34980807 0.015686864 -0.11673474 33 22 26
0.1251073 0.0033109463 0.031616453 90 76 93
0.36254033 0.03819394 -0.15618633 132 142 191
0.107347004 0.0073999874 0.031450395 167 185 233
0.028040847 -0.00041671644 0.013349825 147 163 212
0.24684612 0.04303308 -0.0034099328 125 71 84
0.29835284 0.053714793 -0.04542232 111 94 113
0.30689186 0.05099902 -0.054057334 110 83 100
0.3606027 0.030797012 -0.14720348 137 152 191
0.3203752 0.042166654 -0.06896468 122 99 115
0.08770655 0.025897846 0.029599741 153 167 214
0.29636696 0.05123776 -0.04290381 81 57 81
0.25612724 0.035498876 -0.00831676 50 20 22
0.26228213 0.01063906 -0.0116689205 97 73 95
0.10225374 0.045118682 0.029701732 143 162 202
0.33471078 0.048262663 -0.091703 110 96 113
0.30399495 0.020567328 -0.04744007 105 79 90
0.35005394 0.049635492 -0.12273427 80 73 89
0.27706188 0.02571736 -0.02268654 102 77 99
0.29174978 0.037442494 -0.036312226 113 90 100
0.35458905 0.04396176 -0.13245611 100 110 146
0.34614694 0.010084273 -0.109052025 111 92 114
0.31063285 0.03307592 -0.055601947 122 94 109
0.23078717 0.04860459 0.0044953446 121 75 85
0.32410055 0.017079769 -0.07188562 84 63 78
0.28679866 0.04879183 -0.033390343 85 64 83
0.31800312 0.04776084 -0.06687951 108 86 99
0.25851625 0.019694405 -0.009066595 115 87 101
0.28633752 0.052824516 -0.03371723 56 38 50
0.15904547 0.0063892878 0.028916722 121 102 121
0.3170581 0.010820999 -0.062694 103 89 112
0.35771203 0.037265792 -0.13946944 62 68 100
0.115735225 0.06086114 0.028072042 143 99 124
0.3216785 0.043709595 -0.07099495 99 71 83
0.17167751 0.0025979567 0.026455237 85 61 77
