ply
format ascii 1.0
element vertex 1085
property float x
property float y
property float z
property uchar red
property uchar green
property uchar blue
end_header
-0.8097661 -0.054295648 -0.282402 58 78 111
-0.1255093 0.019356456 -0.12689397 79 92 83
-0.3257374 -0.58641136 -1.2063135 80 59 66
-0.2292733 0.11977363 -0.4501804 118 65 73
-0.54344696 1.0884185 -2.775607 125 95 107
-0.62234765 0.001583496 -0.517288 120 102 126
-0.713672 -0.14776625 -0.6675351 77 61 72
-0.49260333 -0.2202224 0.36575356 175 188 232
-0.49262822 -0.2052127 0.39291355 157 173 224
-0.44017678 -0.3061687 -0.67527735 123 99 115
-0.6793319 1.5048743 -1.7116528 104 98 124
-0.17974912 -0.022539195 -0.0817757 64 72 83
-0.3730242 -1.1337373 1.5568545 109 79 103
-0.86705226 -0.18879218 -0.47597882 134 153 193
-0.025850087 0.41564175 -0.45150444 94 70 83
-0.35570535 0.6765003 -1.3775017 98 74 90
43.22788 -87.02964 -109.390144 68 49 53
-0.2289418 -0.79064196 -1.755274 121 71 80
-0.48956776 -0.087211266 -0.1014657 110 94 121
-0.544263 -0.4135911 -0.53683025 67 68 73
-0.41526902 -0.45148546 -0.61468756 97 86 116
-0.26033512 -0.11777675 -0.31677204 114 99 118
-2.03363 3.992498 5.00785 84 57 64
-0.4719671 -0.26662606 0.3943726 137 162 218
-1.074847 0.27422705 -1.4705515 110 82 97
-0.6006389 -0.52567935 3.2642643 82 41 45
-0.7114493 1.120802 1.951563 96 56 67
-0.5934922 0.1770706 0.7943537 112 99 116
-0.4442649 -0.35620442 -0.53565997 72 54 66
-0.7015598 0.46712622 1.1765152 99 70 92
-0.5171681 0.89794546 -2.7492042 122 103 122
-0.53271425 -0.092154324 0.7428554 99 84 103
-0.043350425 0.29999474 -0.2684332 151 138 155
-0.16874942 -0.7380251 -1.3943377 146 107 126
-0.12926231 0.9874897 1.6844589 49 31 29
-0.44953418 -0.12747052 -0.95522743 106 85 102
-0.15806673 -1.0669651 -1.1991235 65 67 80
-0.36870924 -0.43254733 0.67866063 81 63 75
-0.38133693 -0.52911484 -1.3886651 85 62 70
-0.3746023 -0.2488757 -0.42973801 51 60 59
-0.5063522 -0.21694613 -0.8635858 71 48 58
-0.47714248 -0.14670837 0.13787782 83 64 86
-0.42321384 -0.3471419 -0.7780262 104 80 93
-0.5731309 0.017706187 0.76064956 102 57 64
-0.48648918 -0.28034717 0.3515867 133 159 216
-0.4328309 -0.16144808 -0.39051786 150 169 209
-0.48776126 0.08332923 -0.87143993 101 78 94
-0.43335906 -0.23624255 -0.91354185 120 93 110
-0.41766274 -0.41477972 -0.6919028 109 91 103
-0.62451375 0.33096573 0.5559384 26 55 33
-0.4968432 0.110514075 -0.7796195 114 91 107
-0.49013305 -0.12067114 -0.6139273 112 89 105
-0.5242842 0.15504387 -0.50929374 151 166 205
-0.39625338 0.011306965 -0.4457442 121 99 120
-0.5573993 0.54787093 -0.84254855 66 45 64
-0.67521465 -0.124747254 -0.27298 143 156 201
-0.58749837 1.2956593 -2.680184 98 74 88
-0.46533093 0.25815555 -1.8031319 107 77 87
-0.4203298 -0.19260997 -1.2210805 104 81 97
-0.8272083 0.444512 3.2671764 120 73 83
1.1252642 -4.8979106 -6.163668 102 73 91
-0.5739782 0.029902367 -0.5385987 75 83 122
-0.39930362 -0.04245716 -0.27539763 100 71 91
-0.7296511 -0.028101401 -0.56596386 85 76 93
-1.040806 -0.060071867 -0.66022706 84 88 117
-0.51949966 0.30541185 -0.906268 135 112 132
-0.63034874 0.3525522 0.58357984 29 48 42
-0.8196741 0.19259228 -0.62949055 146 166 203
-0.5036747 0.09149345 0.6843519 84 45 50
-0.49363422 -0.25014317 0.64695716 104 80 106
-1.0298647 1.2013297 1.8420851 136 84 106
-0.40804458 -0.14706776 -1.5552961 100 74 85
-1.1152569 -0.4032137 -0.73600185 105 101 116
-0.5254676 -0.14927854 0.50856787 49 60 88
-0.4594298 -0.12950017 -0.7967747 114 87 102
-0.6590384 -0.40539062 0.47542423 151 143 167
-0.3698328 -0.03771132 -0.15770505 96 69 88
-0.60496515 0.8944842 -1.0473497 115 100 123
-0.39245233 -0.014252204 0.94490093 109 63 73
-1.1750948 -0.5613444 -0.7946584 84 94 93
-0.4574583 -0.2728677 -0.55658495 115 85 95
-0.483294 0.004035625 -0.74131334 116 99 115
0.66088635 -3.1435838 -5.7105823 96 56 65
-0.26292452 0.41576335 -0.7147484 92 49 56
-0.5627936 1.0743786 -2.5223043 123 92 107
-0.9363133 -0.4096869 -0.6677361 80 76 99
-0.6061099 -0.33205825 -0.4108181 106 101 123
-0.93457335 -0.7216905 -1.3020133 128 111 129
-0.8749767 -0.3118361 -0.91673493 106 81 100
-0.34658507 -1.2515054 1.4800775 118 94 120
-0.24662986 0.0651543 -0.14746813 83 43 51
0.2570993 0.58903694 -0.72566366 78 56 68
-0.49885154 -0.6899311 1.6536297 109 64 71
-0.8165121 -0.18671028 -0.60963464 116 95 112
-0.73742557 -0.48321825 -0.70437676 81 96 127
-0.19930312 0.3719591 -0.38932118 113 90 110
-0.71860725 0.08750542 -0.5740374 85 98 132
-0.5791969 -0.28354213 0.43652585 136 161 217
-0.46659493 -0.0010116663 -0.15824345 136 85 102
-0.35910663 -0.06325468 -0.26630998 124 101 117
0.018910086 1.0482998 -0.904375 127 104 132
0.9741643 -4.297252 -6.6034665 91 63 78
-0.5139391 -0.371327 1.0653338 79 39 50
-0.55727035 -0.013248615 -0.5271522 88 100 140
-0.47467944 -0.06241801 -0.72727865 86 65 82
-0.5675473 -0.12200662 -0.5089441 137 157 194
-0.71368057 1.8093864 -2.0751858 98 73 102
-0.57258785 0.09810609 0.5731358 39 68 110
-0.45505285 -0.1594553 0.23862554 126 98 112
-0.38139933 -1.0582203 1.4362638 104 77 96
-0.4806469 0.16834126 -1.2249603 92 69 87
-0.99952227 1.0654522 1.8745284 76 49 66
-0.34582558 -0.07128949 -0.053462133 95 71 87
-0.64418006 -0.35565045 -0.6854485 73 78 100
-0.36190024 -1.3409512 2.0637333 138 110 132
-0.17257746 2.3345675 -2.8479083 111 92 114
-0.34336415 -0.10196186 -0.06712145 82 46 50
-0.49818578 -0.18971732 0.5140651 157 174 220
-0.4119116 -0.06756704 0.073688634 63 75 73
-0.32860023 -0.71882004 -1.0289147 93 86 104
-0.41984817 -0.084354915 -0.15235858 110 67 86
-0.47313347 -0.3642081 0.69946706 122 99 117
-0.4936046 -0.25035775 0.64650685 104 80 106
-0.5890956 -0.58554816 3.0009542 108 64 81
-0.43833384 -0.55858535 0.7645357 105 78 95
-0.38005567 -1.0607729 1.4204872 100 73 88
-1.0119282 0.8625554 1.8663924 120 73 89
-0.536608 0.47066742 -1.0939478 108 81 96
0.3462515 -0.11297392 -0.9856141 107 57 68
-0.45512873 -0.21828845 -0.64355594 108 82 95
0.65138775 -0.6507884 2.3034778 108 80 94
-0.4429586 -0.544786 0.7961529 91 72 92
-0.28056845 -0.55738556 -1.9057828 112 62 71
-0.5899984 0.14733031 0.85123444 63 50 60
-0.53420997 0.36545312 -0.75697863 119 94 115
-0.5926775 0.8575596 -1.2335218 109 91 113
-0.6192636 1.0857388 -1.4722223 124 100 116
-0.4896784 0.15867536 -1.0434616 96 78 92
-0.44602752 -0.08500764 -0.3833704 83 80 99
-0.3977633 0.22804727 -0.5195162 117 95 108
-0.59417474 0.79243714 -0.86914754 112 94 118
-0.7342415 -0.5127194 0.974812 112 90 103
-0.40317 -0.36889374 0.5771866 123 103 130
-0.38811517 -0.2864634 -0.49574912 127 90 108
-0.94713426 -0.3930844 -0.856399 73 82 111
-0.56106967 -0.16728418 0.4051497 94 77 93
-0.46553868 -0.1534585 -0.6605329 125 99 110
-0.025531853 -1.2604533 -2.6447535 113 62 71
-0.90633285 0.8466838 1.4905876 77 46 64
-0.4421201 -0.51178294 0.68297964 125 102 112
-0.45357975 -0.38205227 0.48439953 42 58 94
-0.54864424 0.22574364 -0.40645602 88 95 139
-0.51022255 -0.39651382 -0.80255103 100 81 103
-0.442174 -0.33389646 -0.5998275 114 87 96
-0.46814296 -0.2937469 0.3914348 136 163 218
-0.49617186 -0.10225875 0.27788192 108 52 61
-0.34902453 -0.5974077 -1.1378319 108 78 90
-0.33383554 -0.65199244 -1.2204632 69 53 66
-0.73458093 -0.13434617 -0.3812104 84 80 103
-0.4225818 -0.41600385 -0.63278395 101 78 98
-0.49228728 0.108188786 -0.8648209 102 75 90
-0.46630353 -0.14706981 -0.6714335 119 92 107
-0.90911263 -0.22655357 -0.5005753 120 128 174
-0.46525237 -0.39240274 0.46730515 50 65 98
-0.6722657 1.6993067 -2.315964 118 95 113
-0.47949347 -0.3234652 0.795292 100 63 71
-0.62896293 -0.043408785 -0.19394368 87 75 99
-0.24371709 -0.03886013 -0.35725743 133 93 117
-0.45272416 -0.27831155 -0.5895847 107 81 94
-0.5878084 -0.045035504 -0.58579814 113 83 93
-0.15844934 0.12955917 -0.28561077 72 29 36
-0.55582863 0.011867722 0.75468457 119 104 125
-0.088060334 -1.1167339 1.8418313 69 34 38
-0.49618602 0.17569016 -0.9862795 102 90 112
-0.46659166 -0.15485573 -0.6517222 101 73 85
0.025327545 -1.5775762 -2.5743577 109 61 75
-0.5815609 0.8301318 -1.3489985 106 84 105
-0.29804513 -1.5649621 1.6968671 97 76 93
-0.47771263 -0.33073542 0.6629532 122 100 113
-0.5489256 -0.011817226 0.72514856 123 103 128
-0.54763544 -0.032746863 0.52465373 153 171 217
-0.48969996 0.049492035 -0.7484777 112 89 109
-0.61094344 -0.076520674 0.25052914 71 93 80
-0.39651966 -0.8693485 1.062075 107 76 94
-0.93050593 1.0326006 1.2427856 85 63 76
0.016269865 0.2987523 -0.797607 132 108 134
-0.4360093 -0.005981131 -1.4904763 85 63 76
-0.56447816 0.060081396 0.7221539 103 85 107
-0.46437562 -0.2296887 0.28140897 109 90 110
-0.45749375 0.18380031 -0.45488387 147 164 207
-1.2517718 1.8561513 4.4242134 132 85 105
-0.808351 -0.051864766 -0.52709436 116 139 181
-0.2180682 -0.0531621 -0.23595598 107 93 116
-0.5176531 0.47634605 -1.3252761 114 85 103
-1.9846021 -0.558081 -2.1384304 82 67 86
-0.2638543 -0.1534201 -0.6308638 41 55 144
-0.5487345 -0.0069583473 0.704678 122 104 128
-0.45389646 0.4429615 -2.521348 112 84 99
-0.13632244 -0.6057165 -3.7070076 121 69 81
-0.9413982 0.40311095 -0.9553272 71 59 69
-0.5102207 0.2315296 -0.8573745 99 75 89
-0.034624252 0.55501527 -0.6969627 105 86 106
-0.9366612 0.97477657 1.4373363 131 88 108
-0.07493216 -0.16099752 -0.5420681 99 62 80
-0.5813883 0.2648532 -1.265623 93 56 64
-0.13062532 -0.6229187 -4.027208 86 62 78
-0.46831796 -0.29365736 0.36326912 129 151 208
-0.49561632 0.20229287 -1.0628933 93 63 73
0.2638028 0.6123433 -0.80921924 71 35 45
-0.41295123 -0.12571457 0.07809203 113 88 110
0.43227047 -2.4140425 -4.43497 51 25 24
-0.47518042 -0.13821153 -0.59074533 107 77 87
-1.7437633 -0.018993411 -2.347782 111 98 116
-1.2913092 -0.20037717 -1.0761554 66 77 109
-0.34736225 -1.2807101 1.5861338 119 100 120
-0.61635554 1.2821836 -2.2378855 111 96 117
-2.8683553 6.4061227 7.742722 108 82 95
-0.5506576 0.49464685 -0.7987881 111 88 106
-0.5113244 -0.22521994 0.3896707 111 83 95
-0.518419 0.5174793 -1.6194078 130 111 130
-0.16315794 -0.4582804 1.0625018 130 105 127
-0.7249364 0.27257466 -0.8013981 85 61 75
-0.32310188 -0.70916677 -1.2058855 99 68 74
-1.2287061 -0.66936564 -1.2809027 126 105 122
-0.68897885 0.07597659 -0.5600046 111 123 165
-0.69425756 0.16003878 -0.718357 115 91 113
-0.21013042 -0.034780387 -0.24699746 126 103 119
-1.0102859 0.22140701 -1.3563087 120 96 112
-0.072918326 -0.013279024 -0.4626438 51 25 26
-0.4946007 -0.26426 0.7113888 121 94 109
-0.48683897 -0.22455765 0.3752097 121 127 179
-1.2426265 0.05290239 -1.2595829 111 90 109
-0.6914798 1.6188399 -1.8747916 84 62 74
-0.6296042 1.1146088 -1.3434639 116 99 117
-0.61775607 0.3815211 -0.94956815 115 91 113
-2.331684 -0.24009544 -2.1208613 89 99 135
-0.24781741 -0.062556684 -0.26033747 53 40 50
-0.6830858 -0.8537486 1.3369437 117 88 106
-0.09652538 2.0172634 2.735525 89 46 55
-0.44598547 -0.22593528 -0.771116 109 88 103
0.0038621733 -1.9612781 -2.6598077 79 44 51
-0.88578457 -0.2932821 -0.5977348 114 136 173
-0.7385593 0.30608582 0.63475305 80 92 90
-2.9667232 6.5584116 8.9204445 144 100 123
-0.4949026 -0.33502364 -0.4097239 108 103 126
-0.44612372 -0.30649722 -0.60490334 103 73 83
-0.45814934 -0.24162051 -0.591685 68 45 53
-0.3137785 -0.0731873 0.6580621 124 73 88
-0.8686108 0.777043 1.2791506 131 82 101
-0.52033424 -0.08261578 0.55319214 149 168 211
-0.49328297 0.16565551 -0.98255885 108 87 102
-0.4113368 -0.26495022 -1.1676769 118 101 117
-0.41488242 -0.699778 0.8445478 119 95 117
-1.3274204 1.9501691 5.2614346 113 80 97
-0.78645074 -0.14359905 -0.33449626 139 156 199
-0.32084715 -1.586924 2.1598241 114 83 99
-0.42394176 -0.28693175 -0.9230587 120 99 118
-0.47610384 -0.102860264 -0.6337362 98 75 91
-0.54897404 0.013866109 0.6069982 148 165 211
-0.49685955 0.08938517 -0.7152073 118 94 110
-0.5823435 0.72466534 -0.9106838 117 92 114
-0.44459254 -0.12789044 -1.0304017 110 86 99
-0.4485306 -0.25225058 -1.4703846 90 67 87
-0.6209683 -0.47243577 0.52592236 170 192 239
-0.31901252 -1.3857799 1.7347493 100 76 90
-0.5460453 -0.03743528 0.67058843 109 89 114
0.35449126 0.10443781 2.0672078 111 86 105
-0.41589928 -0.047860973 -0.3386554 48 38 47
-0.6521497 1.4154968 -1.9468256 115 89 114
-0.50803083 0.18771252 -0.7834468 102 75 94
-2.561747 0.3082159 -4.411941 103 84 103
-0.42759398 -0.16781445 -0.26446968 81 57 73
-0.52740866 -0.5655868 0.71014506 125 100 121
-0.47770593 -0.105128 0.10588096 102 70 81
-0.32476658 -0.7288243 -1.096933 94 82 104
-0.61478907 -0.019251222 0.3498807 82 62 71
-0.48842707 -0.21640597 0.38982058 129 106 122
-0.47209513 0.111234784 -1.2434565 103 82 101
-0.71352977 -0.13006398 -0.61835647 112 84 98
-0.37572798 -0.4052118 -1.3158679 102 78 94
-0.5384732 -0.020289319 0.7763141 100 82 104
-0.4448698 -0.3872569 -0.4785806 108 101 117
-0.507716 0.17636698 -1.1805626 119 91 105
-0.6423764 0.05333372 -0.5468106 147 164 208
-0.39983624 -0.04966846 -1.8445991 80 43 50
-0.429111 -0.6584147 0.9246606 116 97 117
-0.8138693 0.57327217 1.1959121 108 60 74
-0.4797178 -0.3227736 0.7940833 92 54 65
-0.33836108 0.00074343797 -0.051968254 90 72 94
-0.44999605 -0.4207272 0.53647834 123 99 123
-0.5258907 0.42720684 -1.1695687 99 72 87
-0.43337083 -0.42722756 -0.47261408 66 70 82
-0.52174735 -0.044552796 0.5684738 31 51 86
-0.34530833 -0.54816014 0.7020789 98 90 114
-0.43136328 -0.49186185 1.0418098 64 35 40
-1.198588 -0.43602794 -0.92702997 103 122 155
-0.43697706 0.04603891 -0.32730645 117 91 104
-0.91203755 0.9512662 1.2651798 148 113 135
-1.1943103 1.404041 -2.3042066 92 75 93
-0.6161439 1.2128135 -1.9582584 111 92 111
-0.47912186 -0.04405484 -0.70338976 84 66 80
-0.39744797 -0.46968487 -0.8104058 124 106 122
-0.49318084 -0.2295191 0.5884268 107 83 107
-0.48696566 0.11225988 -0.9150322 118 90 105
-0.68047076 -0.45966604 -0.62585384 61 70 77
-1.0453714 1.1311702 2.1411917 66 29 36
1.0536835 -4.4629874 -6.9816594 108 60 72
-0.0043229763 -0.044545915 -0.35320207 106 56 68
-0.41777414 -0.32525072 -0.90753657 99 84 107
-0.4698819 0.35152033 -2.0108528 112 89 107
-0.28012392 0.13581796 -0.3061187 77 52 58
-0.7841756 0.64160746 0.90215135 141 96 117
-0.34825957 -0.54059935 -1.3378919 94 73 92
-0.6461471 1.394242 -1.7053757 122 103 123
-0.63343555 1.304465 -1.9443239 113 91 112
-0.5737162 -0.013551853 -0.5149017 146 164 204
-0.6739558 -0.0025423167 -0.5869455 48 44 61
-0.48043305 -0.08848175 0.15814386 62 66 77
-0.3824174 0.026039299 -0.28385663 121 134 176
-0.23562506 -0.54747295 -2.431145 132 84 98
-0.45724875 -0.15478909 -0.7694984 99 77 90
-0.62895817 0.26612377 -0.5843069 118 131 175
-0.7398539 -0.24035798 -0.38013497 118 95 113
-0.55359083 -0.0713265 -0.6012993 128 105 125
-0.48441386 -0.300789 0.6688813 108 94 117
-0.44671535 -0.2629937 -0.68222153 115 97 113
-0.73768985 -0.29445377 0.48025233 135 157 204
-0.5533982 -0.29253152 -0.38343444 121 118 137
-0.54169595 0.07599598 -0.47039324 107 76 94
-0.46269897 -0.35204607 0.49044317 43 58 91
0.06643352 -1.7775743 -2.4230964 105 58 66
-0.050307453 0.14068766 -0.45761758 85 65 56
-0.6499114 -0.06491036 -0.5773006 73 77 106
0.821636 0.75826615 -0.74734145 147 138 167
-0.5849737 0.7974295 -1.1573497 97 75 96
-1.4415274 0.88587123 2.2566192 128 86 106
-0.35884973 -0.26706424 0.37407184 109 90 112
-0.4260338 -0.022320185 -0.27051842 113 67 77
-0.5153875 -0.15295322 0.6778429 107 83 105
-0.8486166 0.77308667 1.112079 100 72 97
-0.35162702 -0.56745654 -1.2026676 104 90 113
-0.68551624 0.43493423 1.0683957 129 86 106
-0.5299546 0.34375793 -0.7836249 115 93 114
-0.53364176 0.36232907 -0.75037146 117 98 117
-0.89840305 0.9322409 1.1658183 96 63 74
-0.7141667 -0.1798951 -0.4640726 145 167 208
-0.5352979 0.70215744 -1.8723567 105 76 96
-0.46217966 0.06098891 -0.41942713 154 171 215
-1.0099548 1.2491683 1.4801453 74 55 74
-0.41862354 0.016091773 -0.40986362 135 157 194
-0.40045246 -0.21848358 -1.4821653 110 83 90
-0.38986188 0.20857419 -0.7398275 111 89 102
-0.47377136 -0.20057788 -0.8990169 132 109 125
-0.69088537 1.6084979 -1.8398908 92 71 90
-0.64168984 0.0075925346 -0.5533095 98 68 78
-4.675373 1.9523544 6.0106444 86 61 64
-0.4198487 -0.16179886 -1.32344 123 99 115
-0.8657119 0.81184363 2.3333619 125 84 102
-0.62779117 1.4257728 -2.2508545 109 82 99
-0.43853483 -0.36193734 -0.58003944 104 87 105
-0.4137349 -0.44515574 -0.6568343 99 76 92
-0.5622868 0.046470612 0.72398406 100 85 108
-0.59519273 -0.03697982 1.2935195 56 33 41
0.1366689 -0.0134446705 -1.1207374 117 64 74
-0.30725533 0.0074977176 -0.3087627 87 74 94
-0.7298699 -0.21683228 -0.5422435 133 122 139
-0.46668592 -0.17647023 -0.6209229 98 68 78
-0.5461872 0.46224287 -0.79881954 93 74 93
-0.47954264 -0.2672708 0.36130863 128 155 210
-0.43173307 0.19953181 -0.4462182 44 44 68
-0.50497764 0.21956822 -0.9485673 127 94 111
-0.38227668 -0.4471376 -1.0915732 104 78 89
-0.47019482 -0.058496516 -0.8032167 112 88 110
-0.19843975 0.007010097 -0.39891016 79 47 50
-0.600352 0.1918774 0.86604434 89 82 100
-0.6060464 1.0716087 -1.6975286 79 61 73
-0.4440507 -0.36632466 -0.5284064 104 80 93
-0.2082952 0.018699013 -0.3027186 125 100 119
-0.5440033 0.43423256 -0.745115 96 73 101
-0.41181055 -0.43007794 -0.7244969 112 94 110
-0.6215113 0.19845733 1.1095947 81 60 75
-0.598135 0.22860034 0.63015217 35 43 66
-1.8375244 3.4159627 4.421039 121 80 94
-0.41805366 0.80187494 1.6276369 64 30 31
-0.3758929 -0.54574984 -0.8920388 96 74 97
-0.626414 -0.21639389 -0.12606984 69 73 85
-0.37059495 -0.041343056 0.045138117 53 73 64
-0.5726532 0.01744112 -0.40227053 139 158 198
0.31552267 -0.10622718 -0.5281689 75 48 65
-0.85367644 0.46597254 0.94820505 121 82 103
-0.80379283 0.59506804 1.1012495 67 37 45
-0.31515643 -0.56222653 -1.5580212 111 65 75
-0.5942022 0.20204635 0.7021033 99 91 115
0.6284351 -0.5491513 -0.7761465 92 98 120
-0.73163724 -0.072092205 -0.6702102 139 151 193
-0.64496845 0.37499073 0.5885742 70 85 80
-0.59827465 -0.5372313 3.0318186 97 55 65
-0.3487487 -0.5834424 -1.1990721 112 89 109
-0.5656483 0.9275095 -2.025696 121 97 111
-1.8120587 -0.57215804 -1.8209947 66 65 79
-0.46252936 -0.3271125 0.38040054 138 161 215
-0.016485684 -0.06432956 -0.22812212 125 103 126
-0.7902277 0.6787312 1.7191622 119 72 88
-0.43217304 -0.0151664335 0.7026636 115 63 76
-0.4616085 -0.026207985 -1.0356896 124 99 118
-0.55611116 -0.19223177 -0.4993288 105 91 116
-0.34670365 -0.34569976 0.7622848 111 72 91
-1.9826684 -0.59307206 -1.6831928 89 100 130
-0.95442134 0.15342288 1.2986209 101 86 105
-0.5811026 0.69986624 -0.8181707 104 76 99
-0.6546307 -0.03303006 -0.85680807 120 98 110
-0.5460845 0.51086986 -0.99784744 116 91 112
-1.4566041 2.267795 3.6743486 101 73 96
-0.39233077 -0.4828848 -0.8397393 107 88 110
-0.50139076 -0.26458445 0.36315367 126 151 207
-0.5880972 2.5002182 -2.8208106 121 92 112
-0.44829315 -0.01483071 -1.2746403 92 67 86
-0.4721055 0.010632832 -0.9514528 99 77 90
-0.62436885 1.3621069 -2.267291 117 93 107
-0.40851656 -0.7551393 1.2849429 128 103 122
-0.33996105 -0.6313185 -1.1770802 79 55 69
-0.60991925 0.034925982 1.3296635 106 63 73
-0.6785683 0.3661679 0.67899173 85 65 77
-2.6650243 5.7104163 7.972125 151 107 130
-0.46398902 -0.7817062 1.3669643 68 32 36
-0.5672406 0.06871262 0.7352956 112 94 116
-0.51689374 0.2255057 -0.6980023 91 67 81
0.76971924 0.33479357 -0.68233854 166 179 232
-0.8911541 0.6701063 0.9178986 131 89 109
-0.34006593 -0.89930195 -1.4486152 92 48 63
-1.1290166 -0.41616967 -0.70190144 92 72 84
-3.341117 -1.6691128 -5.1236615 101 76 97
-0.31294215 -0.29685017 0.7101597 114 90 112
-0.64420515 -0.08421828 -0.23616534 58 54 77
-0.4630929 -0.15651324 -0.69343853 108 78 90
-0.4757295 0.23117949 0.7772206 90 67 87
-0.60573816 0.88488823 -0.9861126 87 74 100
-0.37005416 -1.2008964 1.7212489 129 97 121
-1.5095131 -0.55297023 -1.2767957 83 96 130
-0.5568049 -0.50004184 1.190251 84 57 66
-0.27398205 0.07701091 -0.81347424 68 31 39
-0.30405083 -1.5253512 1.6599681 112 95 114
-0.8531659 0.13087071 1.6004088 105 64 72
-0.33204246 -1.4723243 1.9721864 110 83 102
-0.49022177 -0.4844809 1.0502961 66 40 43
-0.7133744 -0.28093484 -0.4607901 60 83 67
-0.46212026 -0.23147073 0.18881306 102 83 103
0.14465943 0.1639873 -0.62309384 64 39 43
-0.41557482 -0.083884194 0.043223243 113 78 102
-0.41184235 -0.4650115 -0.6239639 98 97 128
-0.5116015 -0.38764068 1.0922132 73 37 49
-0.4181616 -0.35326535 -0.8351817 132 110 123
-1.8205764 0.83790183 -2.7663183 82 66 79
-0.45891002 0.011220794 -1.1750284 125 102 118
-0.5845755 0.75075054 -0.972207 93 64 82
-0.9358332 -0.23486571 -0.61941844 113 93 104
-1.9367875 -0.30251127 -1.7780894 128 148 185
-0.3146711 -1.5675997 2.0081685 119 94 116
-0.44638002 -0.022213072 0.3769168 113 72 86
-0.252016 0.7764052 -1.0439031 107 80 99
-0.5732607 -0.018670343 1.0413212 70 40 48
-0.51816314 -0.08655311 -0.48394772 133 153 190
-0.5327079 -0.12031793 0.32928038 114 75 96
-0.3010337 -0.27285486 -1.1273638 96 67 87
-0.5959038 -0.03684362 1.2919637 56 33 39
-0.48587763 -0.9071685 2.196774 107 61 74
-0.52705544 0.3777753 -0.99451745 103 86 104
-0.58319247 0.7499154 -1.0151428 114 101 121
-0.48593375 0.2609353 -0.372752 65 76 108
-0.40051106 0.21243092 -0.43803102 33 30 39
-0.3124289 -0.032029644 -0.11114102 140 95 115
-0.6174606 0.25275242 1.30616 82 44 57
-0.4611167 -0.06970594 -0.4606331 81 82 112
-0.5537037 -0.07129609 -0.6011666 128 105 125
-0.44742164 -0.5315705 0.8252388 90 67 85
-0.39185983 -0.27903995 -1.4229218 109 87 100
-0.6580264 -0.09299379 -0.6682009 104 84 96
-0.7225462 0.44549027 0.82909304 101 67 83
-0.55464494 -0.019052602 0.5942429 105 86 114
0.1321333 0.24405241 -0.51163507 146 99 117
-0.6280878 1.3718364 -2.2552137 129 102 117
-0.33766738 -0.69863343 -0.8620454 73 66 73
-0.35390127 -1.5110327 2.7160735 118 95 115
-0.56835485 0.073449954 0.7352001 110 91 111
-0.24242906 -0.32439232 0.97411364 95 49 60
-0.24879667 -1.1868466 -2.5248082 92 56 56
0.17143227 -2.1463392 -2.719765 73 49 62
-0.71055955 1.8122592 -2.1409898 100 83 102
-0.45157966 -0.33958665 -0.52294654 128 109 128
-0.46225405 0.03610272 -1.1788235 124 100 116
-0.43959764 -0.0009652874 -1.4700139 88 66 79
-0.46625826 -0.200107 0.1574067 106 89 108
-0.5470289 0.7751218 -1.8880357 118 99 119
-1.1561273 -0.72221494 -0.9922817 52 56 67
-0.5862738 -0.24885342 -0.54116267 102 83 102
-0.03716036 -1.4054368 -2.295097 115 64 79
-0.9253951 0.99944013 1.2654032 88 56 67
-0.45302445 -0.21612926 -0.69552696 104 77 86
-0.5148167 -0.17934275 0.74980533 79 58 67
-0.70764697 1.772428 -2.0686238 96 72 96
-0.46469218 -0.11419987 -0.75567585 112 88 104
-0.71939856 0.089226544 0.6272797 39 46 72
-0.89287865 0.81886953 1.424304 100 71 93
-0.5053968 0.15747148 -0.7433639 90 67 77
-0.60363895 -0.32950956 -0.4341412 85 72 98
-0.32288408 0.021011783 -0.30104163 107 78 98
-0.42552233 -0.21068135 0.3929734 109 59 71
-0.47155717 -0.019440267 -0.8815727 109 85 98
-0.39658254 -0.065007284 -0.012158577 92 65 82
1.5785878 -5.878693 -8.722807 98 68 92
-0.3099554 -0.15915959 0.6928574 103 80 100
-0.8142153 -0.18920994 -0.56417304 50 47 64
-0.20352647 -0.03281332 -0.8664161 150 99 114
-0.13839552 -0.8477509 -2.6652598 151 95 108
-0.52047545 -0.10879789 -0.47595355 146 161 202
-0.651407 0.4262793 -0.63144386 120 138 176
-0.48402745 0.094167106 -0.96263736 99 82 101
-0.4571285 -0.11941917 -0.07843737 95 68 77
-1.1411518 -4.561327 4.586908 87 66 83
-0.868515 0.7763245 1.2785038 135 83 105
-0.5742147 0.017576493 -0.3967239 55 61 93
-0.59261954 0.061342925 1.0941044 114 67 77
-0.3724634 -0.32378432 -1.6096141 75 51 64
-0.5897607 0.98621416 -1.7298042 119 96 112
-0.6383626 0.24527913 -0.61716896 68 52 63
-0.73087686 -0.10572766 -0.41376886 75 85 121
-0.39669043 0.067779854 -0.34900215 131 142 188
-0.5101464 -0.11245321 0.1879247 49 69 57
-0.015884623 1.047172 -1.3529893 96 55 63
-0.45403603 -0.38518605 0.46633655 159 175 226
-0.49639064 -0.21988826 0.36123887 154 163 202
-0.56018203 0.029982897 0.72363037 111 96 119
-0.4804336 -0.2590173 0.45830476 162 178 229
-0.6475467 0.806728 1.518712 103 62 70
-1.271885 1.8606808 2.6699529 106 72 97
-0.5356478 0.18806717 -0.3886153 54 74 98
-0.83696294 0.67120296 0.9349818 108 69 88
-0.99078757 -0.36557966 -0.8128307 84 101 129
-0.47095177 -0.12327979 -0.6600189 129 108 125
-0.28974175 -1.6024544 1.9000502 102 88 111
-0.4389893 -0.25821447 -0.78693014 127 105 118
0.304791 1.8179753 2.476198 70 73 82
-0.29357076 -0.09049553 -0.22885472 97 81 107
-0.6119573 1.1653343 -1.8908415 113 95 111
-0.4038118 -0.03250794 -0.35447258 129 81 95
-0.71352905 -0.29704627 0.4496468 144 156 206
-0.62419015 0.322414 0.7605545 122 107 128
-0.45644513 0.23497741 -1.851839 113 88 109
-0.56823444 0.6420265 -0.96296906 111 92 114
-0.25695172 -0.17644374 -0.5859908 102 76 89
-0.6239185 -0.49928087 3.4847934 96 64 77
-0.42263716 -0.081266016 -0.7639116 98 79 98
0.09646089 -1.8336264 -2.7975445 81 47 63
-0.5782775 -0.10819105 -0.17864446 118 100 112
-0.45268318 -0.2631843 -0.614783 121 98 114
-0.47080535 -0.18960309 0.14914179 126 108 132
-1.0747156 1.3794181 1.7923766 86 50 60
-0.34857357 -0.048111092 -0.12588951 95 49 62
-0.61993873 1.1164528 -1.5526599 120 93 112
-0.51444733 0.23854506 -0.80407727 119 96 114
-0.36859965 -0.3102924 -1.7148768 93 61 72
-0.7835667 0.07212001 0.7914272 148 116 140
-0.6261133 -0.20990182 0.5982588 118 94 107
-0.53727925 0.42822236 -0.9117773 121 96 117
-0.49474514 -0.2311616 0.5211722 39 46 74
-0.9146539 -0.33151627 -0.840579 105 121 157
-0.26538336 0.15588452 -0.94626254 95 54 62
-0.4202135 -0.33009088 -0.86682415 116 86 98
-0.4478935 -0.4745091 0.65882206 109 90 110
-0.6965527 -0.12393736 -0.18851274 151 168 211
-1.3779202 -0.044325482 -1.4728682 100 82 106
-0.40787148 0.0528371 -1.949832 132 81 90
-0.3132325 -0.06256893 -0.7044838 102 78 91
-0.45818502 -0.22891857 -0.6091264 107 80 89
-0.5809415 0.7839196 -1.1955072 117 100 119
-0.29368332 -0.3711298 0.9497409 91 51 60
-0.56533104 -0.832902 -1.5484786 111 65 75
-0.45474893 -0.13653396 0.49896094 145 168 212
0.92592686 -2.7360687 -3.7814493 140 100 124
-0.5184971 -0.30920276 -0.41180658 148 140 164
-0.82140267 -0.24456733 -0.87966025 84 71 80
-0.54774666 0.6068488 -1.3237199 123 100 118
-0.3851168 -0.9106256 1.0617896 106 86 111
-3.1231015 6.880922 9.726623 149 105 130
-0.36064634 -0.42740968 0.8517773 125 108 127
-0.58840907 0.8745263 -1.3756992 123 106 125
-0.628062 1.203308 -1.694997 118 94 116
-0.40952364 0.0048040105 -1.8609899 119 76 95
-0.5347477 0.3744915 -0.74601364 116 93 111
-0.6059433 -0.12012064 -0.44733366 132 141 184
-0.13146438 -1.1802509 -2.5087726 142 99 118
-1.1861548 1.5640193 2.5067077 105 77 100
-0.49781865 0.14052707 -0.82773846 95 74 89
-0.4114808 -0.14663732 0.09403495 91 76 95
-1.178036 -0.5095019 -0.89188814 93 107 144
-0.52007127 -0.2168315 0.50938153 166 179 231
-0.53213453 0.43006107 -1.0472444 122 95 110
-0.90082383 0.97057253 1.1996489 93 63 73
-0.5979213 1.0000441 -1.6269025 126 104 125
-0.54089713 0.3169478 -1.0243264 142 115 132
-0.39093664 -0.2520787 0.3424037 96 74 97
-0.5843353 -0.084300265 -0.5974856 123 105 127
-0.49478096 -0.30155283 0.3592494 131 158 213
-0.75993174 0.63556767 0.8848423 108 86 109
-0.58028495 0.7487219 -1.3860904 107 84 100
-0.713052 -0.50274754 -0.65384823 84 80 94
-0.5149205 0.21182688 -0.6950635 118 91 106
-0.37980983 -0.42056745 -1.2036893 127 100 115
-0.4124426 -0.4632032 -0.62923914 100 96 123
-0.4640584 -0.61742777 1.0390313 62 32 40
-0.5205917 0.28284252 -0.8354877 130 105 126
0.057087876 0.47000998 -0.49811316 104 80 94
-0.4885588 -0.22336736 0.38722852 131 114 132
-0.44392818 -0.12697344 -1.0631734 118 94 108
-0.57957083 -0.9166679 0.9670125 116 99 118
-0.7439047 0.36873883 -0.8752939 90 72 84
-0.03507486 -0.08387196 -0.55321807 152 100 113
-0.321737 0.011656041 -0.087971136 76 43 50
-0.3675105 -0.061810933 -0.27025834 101 73 88
-0.5133626 -0.17917328 0.51984596 47 59 83
-1.232052 1.84544 2.2000158 90 63 78
-0.3699308 -0.5515185 -0.9728275 118 100 122
0.25637448 0.58806646 -0.72514933 91 65 78
-0.5627254 0.03076623 0.72000515 107 93 118
0.2820477 0.54202145 -0.46215168 39 57 93
-0.50525194 -0.28466463 0.3503858 141 158 214
-0.59635884 1.3058039 -2.612075 113 96 114
-0.45763552 -1.0245692 2.1346745 99 52 60
1.7624549 0.31085742 4.8335524 111 87 101
-0.36324918 -0.3582397 -1.6579953 89 62 69
-0.52191633 -0.15486754 -0.55250597 117 105 125
-0.5849316 0.03968603 1.0072974 103 56 64
-0.6525711 0.14867787 -0.44835556 138 153 196
-0.70919687 -0.006882218 -0.57470804 89 75 92
0.0980884 -0.38575885 -0.5314115 101 73 87
0.34880298 -0.3489645 -0.4123205 98 60 73
-0.43404183 -0.51594025 0.5870695 101 79 100
-0.56449753 -0.49899793 0.86316687 105 92 110
-0.48373735 -0.35830218 -0.3951219 82 98 121
-0.3951647 -0.40739754 -0.9881557 113 87 100
-0.43821755 0.1842626 -0.52103025 98 74 87
-0.5683856 0.018454056 -0.3925127 35 41 65
-1.4525639 2.1202965 4.1086526 106 63 72
-0.55263215 0.906081 -1.7917472 117 91 104
1.4465196 -0.73807335 -1.3991672 80 92 90
-0.12528247 -0.9933126 -2.2944717 97 70 85
-0.49700147 -0.12835856 0.103558935 117 95 107
-0.45772725 -0.0803407 -0.94306475 104 80 94
-0.64280343 -0.13359505 -0.22557871 99 84 105
-0.6874397 1.7078176 -2.172925 124 99 121
-0.39514855 -1.3026198 2.7671683 116 93 109
-0.9272198 -0.30337647 -0.8658735 101 83 95
-0.58564067 0.15836647 0.7305291 83 76 94
-0.45383853 -0.3732688 -0.47297415 139 126 143
-0.15865867 -1.1543956 -1.4421566 114 71 88
-0.42557666 -0.2100566 0.39104545 109 59 70
-0.52160954 0.2650523 -0.70715624 114 83 99
-0.44510493 0.021244323 -1.4240197 114 90 103
-0.19150731 -0.27211353 -0.7120674 122 92 100
-0.36771896 -0.4372307 -1.3517251 127 97 107
-0.42735407 -0.23036987 -1.0028703 116 86 94
-0.55817044 -0.10370311 1.0434825 108 63 70
-0.4720548 -0.41663894 0.94148993 110 63 71
-0.54765946 0.49144706 -0.8733438 97 73 89
-0.4431905 -0.35590696 -0.54516184 87 66 83
-0.7252914 -0.13390328 -0.34213606 99 79 91
-2.3055172 0.45001003 -2.9386919 109 84 103
-0.45205715 -0.47261804 0.7117026 118 100 122
-0.68434703 0.5130115 -0.89052963 111 91 102
-0.6810871 1.6586394 -2.1975796 123 96 111
-1.2435666 -0.1678552 -1.0425187 116 98 120
-0.49283 0.33498415 -0.89414257 100 70 82
-0.4924627 -0.32300738 0.8749904 112 95 114
-0.2722206 -0.0017243697 -0.34702718 102 71 87
-0.494449 -0.21811023 0.3688972 130 116 131
-0.39754245 -0.5029622 -0.64021856 119 105 122
-0.45634016 -0.1702609 -0.74825525 133 103 113
-0.6067415 0.22626102 0.8483553 89 82 100
-0.5653867 -0.26163462 1.0211849 98 71 86
-0.61793756 0.2984695 0.74698573 91 83 107
-0.7345195 -0.19933659 -0.49569905 133 121 135
0.7514869 1.9781883 3.1256833 88 75 93
-0.6285031 0.17469741 1.234913 118 65 75
-0.89154077 -0.30097646 -0.58057827 93 92 110
-0.6453947 1.3800567 -1.687269 123 101 124
-0.48882526 0.2526648 -1.3245802 102 75 94
-0.42030802 -0.28214523 -0.97813135 98 78 90
-0.44886428 0.18405007 0.90269315 96 68 91
-0.21483162 -0.77940476 -1.86875 107 62 67
-0.58229846 0.26024175 -0.4140682 40 57 85
-0.47744015 -0.084819324 -0.6522104 129 112 128
-0.67958117 0.362107 0.69290274 94 64 76
-0.7354799 0.31868464 -0.6626756 111 92 112
-0.5347945 -0.18955657 0.93378514 66 49 55
-0.44927007 -0.47887388 0.6847513 101 77 99
-0.3874858 -0.9174712 1.0557841 119 99 126
-0.5172853 -0.31895772 0.26989537 102 80 101
-0.88737917 -0.9861079 -1.8271638 105 86 106
-0.7192177 0.12987536 -0.6336744 72 74 112
-0.47983614 -0.075996935 0.14138962 128 82 95
-0.5024321 -0.18549015 -0.67199194 111 92 111
-0.043139853 -0.20348936 -0.7155216 79 57 70
-0.57072705 0.77483433 -1.418505 107 86 103
-0.43257445 -0.36691582 -0.63094085 131 113 129
-0.49965942 -0.21483687 -0.5022373 73 62 76
-0.42970586 -0.26366645 0.19032018 118 95 115
-0.67120767 1.4607708 -1.7359827 96 82 107
0.029013569 -0.08569828 -0.43505898 83 50 61
-0.49111637 0.27150357 -1.3590099 114 91 111
-0.54570866 -0.051898945 -0.51107556 95 71 87
-0.5622969 0.58136153 -0.851628 128 99 117
-0.4435409 -1.06843 1.9345393 65 36 41
-0.5078874 0.36650312 -1.3426739 95 74 93
-0.44419774 -0.43346247 0.4887472 158 170 222
-0.5067244 0.20798169 -0.858171 102 76 87
-0.6971077 0.4379893 0.6927076 98 65 82
-0.13161522 -0.62668073 -4.02091 86 62 76
-0.76645005 -0.13068095 -0.43194214 118 141 183
-0.058832064 0.68562615 -0.7740911 88 45 55
-0.6995443 0.4370545 0.7100214 90 64 89
-0.5095182 -0.21697998 0.38422078 95 108 152
-0.5881494 1.127609 -2.2226558 117 98 117
-0.38268685 -0.5604786 -0.6600228 70 60 68
0.107222885 -0.004013121 -0.43793875 112 93 112
-0.42211512 -0.08980657 -0.0005264365 97 69 91
-0.45285043 -0.51528525 0.84362817 98 79 99
-0.47392726 -0.2932631 0.38205007 111 130 188
0.48132473 -0.26713195 -0.6949963 142 103 122
-0.9447184 0.98731613 2.0454783 107 60 70
-0.4504801 -0.51103497 0.7999698 83 66 82
-0.4690379 -0.11731939 -0.69262576 130 112 124
-0.49826303 -0.1140778 0.1720933 88 77 94
-0.36776394 -0.4521058 -1.3057029 105 78 95
-0.54781526 1.0793431 -2.7538657 125 97 109
-0.71513516 -0.44630545 0.57574683 171 191 242
0.03531052 -0.06585277 -0.42084697 78 41 49
-0.88354623 0.54505825 0.82962364 111 98 118
-0.98013383 -0.22076502 -0.7722936 55 42 51
-0.5919875 -0.117982544 -0.064517915 96 74 87
-0.6303602 0.104972474 -0.6145469 102 81 98
-0.9826738 -0.031182656 -0.85500574 147 166 206
-1.131621 0.25601858 -0.9126163 105 90 113
-0.68696916 -0.3790195 -0.58502764 110 110 120
-1.6255195 -0.25742546 -1.3917001 133 145 193
-0.64958924 0.2572962 -0.60350746 86 100 135
-0.41880184 -0.46103033 0.68439794 124 97 112
0.17576718 0.119514234 -0.71972865 83 40 49
-0.4115306 -0.46138558 -0.58345157 86 75 92
-0.9160205 2.8801317 -3.8710723 96 64 85
-0.43732274 0.15907809 -0.51646286 94 71 87
-0.40273649 -0.23326866 -1.398349 107 80 87
0.33186522 0.032688998 -0.36419007 118 143 200
-0.7642767 0.55754805 0.9248783 88 66 89
-0.7697577 -0.1744915 -0.7036357 146 161 202
-0.47055385 -0.11162008 -0.6855246 104 80 94
-0.4696486 -0.28465027 0.50530636 155 173 219
-0.8176593 -0.23314002 -0.73562634 149 166 209
-0.5916738 0.19261494 0.69301397 144 161 204
-0.5973571 -0.042818658 1.3760785 88 52 54
-0.69157827 0.23253116 1.7896144 139 128 132
0.2669497 -2.3985512 -3.2147903 106 70 84
-0.50159377 0.21727848 -0.50358623 122 144 183
-0.47034195 0.41181493 -0.74239165 105 88 107
-0.39921835 -0.08905418 -0.009839181 118 92 105
-0.4930503 0.22017604 -1.1679263 112 80 91
-0.46160007 -0.2023653 0.30937013 117 99 121
-0.42111817 -0.4174357 -0.6457391 106 83 93
-0.6342244 -0.27769202 -0.730076 114 100 126
-0.5183538 0.083632454 0.5442568 44 20 18
-0.21753101 -2.172313 2.3677566 128 106 129
-1.170877 0.9849146 1.5779256 101 58 75
-0.2711643 0.09103968 -0.3112988 120 96 120
1.1181576 1.244975 -1.0888501 104 125 180
-0.31525835 -1.6067009 2.3740976 117 98 120
-0.37700355 0.08229332 -0.43319023 117 94 114
-0.49298322 0.0713792 -0.7455241 116 95 114
-1.0013307 1.0179213 1.9533339 112 66 77
0.2345872 0.2534697 -0.6390645 92 74 96
-0.5482386 -0.83567446 -3.310648 114 71 80
-0.51866424 0.23376985 -0.6743317 123 96 113
-0.48773253 -0.12373477 -0.5122282 42 47 69
-0.8383195 -0.79935783 -1.2216523 103 76 85
-1.2158571 0.3933949 0.9480175 76 100 78
-0.5499966 -0.040316932 0.8486127 96 69 84
-0.4076125 -0.9939701 2.0369256 123 95 110
-0.4444809 -0.3268933 -0.58003867 98 71 76
-0.58833134 -0.08520231 -0.47569376 88 66 78
-0.47428283 -0.17817302 -0.46028456 74 83 116
-0.8050538 2.312857 3.0496473 83 52 67
-0.45715445 -0.20478036 0.2739179 114 96 84
-0.5549515 -0.022398269 0.45513615 152 175 217
-0.43397954 -0.39804748 -0.5331974 94 95 113
-0.49309638 0.05927253 -0.712044 87 69 83
-0.46791267 -0.36500308 0.6219237 110 100 125
-0.4901228 0.101741455 -0.8796944 111 88 108
-0.3964543 -0.49693164 -0.59301317 111 94 110
0.6279202 0.80753714 -1.349702 114 101 121
-0.667567 -0.32322738 -0.47549123 107 103 120
-0.41074273 -0.21322547 -1.3174869 114 83 99
-0.7940712 0.33449587 3.11687 122 72 81
-0.39714596 0.4960857 1.55653 110 53 60
-0.54509854 -0.030809576 0.7343091 114 90 114
-0.46150944 -0.36496463 -0.4659947 133 121 135
-0.5105139 0.17038444 -0.68004066 94 66 81
-0.4020647 0.23504676 -0.44171086 37 40 59
-0.05586117 -0.1301072 -0.81092036 115 78 95
-0.56777275 0.09096057 0.5805658 148 165 211
-0.42001134 -0.3297889 -0.8669371 115 85 97
-0.32370746 -1.6637439 2.5549023 104 76 98
-0.44221765 -0.30995247 -0.6818504 113 90 106
-0.4686355 -0.33114213 0.6782922 111 92 112
-0.37228644 0.022769762 -0.4322351 108 83 104
-0.77840847 0.35953104 -1.0834016 105 86 108
-0.90145695 -0.09401491 -0.68809116 63 57 71
0.10079601 -0.34851483 -0.660844 84 63 80
-0.624073 -0.38677576 -0.6215053 70 84 113
-0.6015436 -0.17863785 -0.47524878 133 121 135
-0.5362192 0.4173371 -0.89275694 127 106 125
-0.48280832 0.0076223207 -0.76303005 97 87 111
-0.49275458 0.22698592 -1.2086371 118 86 99
-1.317888 0.17279653 1.7249547 101 82 102
0.017279297 -1.4205421 -2.8230906 59 30 32
-0.94015324 -0.41396317 -0.5017756 58 64 80
-0.5317662 -0.27815226 0.8217791 98 58 69
-0.51373243 -0.16768792 0.5212477 37 53 86
-0.44320676 -0.087227575 0.54043835 108 77 85
0.12507483 -0.1960158 -1.223951 129 79 90
-0.6229076 -0.2944602 -0.5915559 102 81 98
-0.21957551 -0.038268253 -0.20657797 78 66 80
-0.45235345 -0.1888332 0.17658643 127 99 121
-0.6387579 -0.24489653 -0.4428319 120 117 138
-0.44955096 -0.14969431 -0.63984823 108 84 100
-0.31740752 -0.3017926 0.75031334 106 81 102
-0.4655982 0.25888732 -1.819315 97 71 80
-0.09773744 0.12246653 -0.6720486 122 98 124
-0.5497204 -0.13693304 1.015781 77 34 44
-0.5423666 0.42594457 -0.76107186 105 89 116
-0.9574001 0.6562461 1.1653339 120 78 98
-0.70280063 1.8130811 -2.1443923 126 110 137
-0.3315563 -0.49231306 -1.6343677 140 93 111
-0.1699157 0.17125909 -0.23995793 125 96 116
-0.51798373 -0.3161148 -0.40882772 109 108 126
-0.38796103 -0.9756164 1.2078398 63 95 108
-0.36158124 0.25850296 -0.5358917 96 69 88
-0.47356543 -0.16383296 -0.5771228 104 91 117
-1.5141338 0.8266998 1.696252 105 85 97
-0.5604068 1.0084006 -2.3955398 119 89 101
-0.8601985 -2.1791818 2.1746597 115 93 116
-1.0108026 0.077191375 -0.56574255 54 74 98
-0.3390682 -0.63496035 -1.194157 82 59 77
-0.45358142 -0.4639112 0.7095481 107 88 107
-0.21438177 0.17764491 -1.0581008 115 89 114
-0.65665704 1.3777646 -1.7309113 88 69 88
-0.46698073 -0.24204575 -0.46535963 48 79 143
-0.55433893 0.6002726 -1.1440005 97 73 95
-0.6773911 0.02360731 -0.5586279 62 59 76
-0.52431566 -0.113429695 0.6739037 111 96 115
-0.60444635 0.9675179 -1.3170904 116 91 110
-1.3754399 0.23293278 -1.7557693 92 75 94
-1.0101423 1.2332474 1.5127457 123 76 94
-0.5710452 0.6773476 -1.0353389 100 79 98
-1.9135255 3.661481 4.5751405 113 72 90
-0.0899901 0.13931529 -0.311083 104 86 102
-0.06994644 0.2679549 -0.4143335 118 82 96
-0.4709496 -0.25768417 0.40150356 112 128 187
-0.43337774 -0.27561328 -0.8285691 118 95 113
-0.5111051 -0.16688967 0.64789265 124 101 117
-0.4936136 -0.22007054 0.3645705 168 181 223
-0.6145554 0.2875592 0.4849744 64 71 64
-0.56347775 0.1975232 -0.5464693 119 128 171
-0.4306738 -0.58115375 0.73629385 113 86 105
-0.532512 0.53444797 -1.2217363 126 102 116
-0.21256518 0.07304331 -0.06854412 131 156 212
-0.37697577 -0.947627 1.0195708 118 99 118
-0.46715423 1.0416119 -1.4503206 112 89 109
-0.858451 0.46368968 4.142552 115 64 73
-0.095618114 0.16415581 -0.5891583 120 97 117
0.075455934 0.17978466 -0.62449616 59 38 35
-0.62485546 1.4498744 -2.5821517 99 76 92
-0.48801863 -0.22507295 0.38903478 126 120 146
-1.2288231 -0.39119062 -1.1669687 116 99 117
-0.3134574 -0.007655407 -0.44224516 106 82 98
-0.34156528 -1.5170714 2.310854 102 80 103
-0.6143747 0.27068916 -0.5802392 125 138 182
-1.8977889 3.6474802 4.3803983 86 60 73
-0.51570314 0.243991 -0.7868275 109 85 101
-0.63574415 -0.43273643 3.5017555 110 62 74
-1.010357 1.2353219 1.5147454 124 77 95
-0.59649146 0.8079358 -0.8855144 102 84 108
-0.42313054 -0.17062749 -1.2660385 121 100 117
-0.5244874 -0.13311578 0.36538672 142 84 99
0.8851179 -2.4148474 -3.888093 122 75 93
-0.43971002 0.014402492 -0.4057226 99 86 106
-0.056576625 0.11915394 -0.17383441 148 118 142
-0.43589702 0.23701692 -2.2536967 126 112 129
-0.58699614 0.050408762 0.99839264 105 58 68
-0.5911251 -0.11879804 -0.54196846 112 125 169
-0.25962943 -0.057186376 -0.32489055 125 78 96
-0.647319 0.3481077 -0.93623704 115 96 115
-0.34783337 -1.2764659 1.5755557 114 94 119
-0.35946634 -0.62269753 -0.7943321 109 92 108
-0.4097181 -0.4270539 -0.76389396 88 68 80
-0.4645362 -0.4134398 0.71716315 111 82 102
-0.54798704 -0.012684361 0.7094486 101 84 103
-1.2066809 1.5929236 2.6526425 131 82 103
-0.51232016 0.28078917 -0.97269875 123 92 108
-0.51269126 0.2713708 -0.9376623 110 86 102
-0.5628235 0.7437788 -1.4738984 113 85 108
-1.9488255 4.004702 5.4644465 121 83 96
-1.0080327 -0.2930557 -0.65343624 113 135 172
-0.22689345 0.18562539 -0.87637275 98 69 87
-0.13070863 -0.6202989 -4.021391 82 58 74
-0.6431177 1.3603977 -1.9564862 126 107 127
-0.6064149 0.49121082 -0.6299148 136 151 190
-0.4760479 -0.05356788 -0.32189643 78 65 82
-1.1250131 1.435938 2.214938 105 76 98
-0.889284 -0.014599037 -1.1138823 124 106 120
-0.54396296 0.001081545 0.7991369 100 90 115
0.097474866 1.1989754 -1.4154422 129 106 114
-0.4736033 0.11365964 -0.46943372 119 134 173
-0.42333162 -0.5978538 0.6687112 116 97 119
-0.40445936 -0.42783213 -0.83080703 101 79 100
-0.49244726 -0.22017771 0.36595938 159 168 211
-0.48201212 0.08698735 -0.9879263 111 91 103
-0.48911422 -0.07396227 0.38249257 122 65 80
-1.7545948 -0.02136548 -1.8056444 98 81 99
-0.6175896 1.3237399 -2.3327153 116 99 118
0.029746873 0.50528824 -0.33966702 46 61 92
-0.598343 0.7279557 -1.112315 113 86 103
-0.5809437 0.7398241 -1.0324942 103 84 104
-0.49256986 0.026774682 -0.6491716 94 72 85
-1.1340594 -0.45751828 -0.85778666 129 118 135
-0.5666469 0.089438036 0.66984123 109 93 119
1.0956028 0.6469322 -0.8436493 131 148 192
-0.5589455 0.07398363 0.66548145 144 162 202
-0.47103634 -0.14983366 -0.6104487 122 95 110
-0.57270586 0.6347329 -0.77538335 119 91 116
-0.63818073 0.42395276 -0.6477348 39 40 61
-1.7072026 -0.09363887 2.525044 40 19 18
-0.42560723 -0.6534807 0.8629911 121 97 119
-0.17253383 0.035758004 -0.36506748 117 94 114
-0.4696412 -0.27304694 0.35658845 124 148 208
-0.4760463 -0.13229735 0.18751508 101 80 99
0.7406394 0.1451833 -1.0234427 97 79 105
-0.5729713 -0.18308036 0.39303282 148 165 211
-0.5622006 0.08584794 0.5896552 143 161 207
-0.6033506 1.0467103 -1.6913238 74 60 75
-0.18543957 -1.065667 -1.4832664 121 67 83
-0.4486903 -0.11717027 0.078064576 128 97 113
-0.450385 -0.4616384 0.6600305 119 96 116
-0.37849957 -0.10849236 0.01281227 97 51 62
-0.5008524 -0.1994658 -1.2390847 109 63 74
-0.53398967 0.003027584 0.7700168 78 62 75
-0.34506342 -0.582383 -1.2472867 86 50 62
-0.054163143 0.42959517 -0.89288735 125 72 90
-0.63240623 1.233848 -1.7150404 96 72 94
-0.5790806 0.14198925 0.55796355 150 168 214
-0.48907095 -0.24905518 0.3523479 120 147 202
-0.41996053 -0.2638254 -1.0256667 122 99 117
-0.48205495 -0.27956644 0.56317896 167 181 230
-0.5564732 0.10554756 0.5929483 29 44 75
-0.4654793 -0.370787 0.59905 106 81 103
-0.075269185 0.37298635 -0.38022187 104 76 88
-0.42112738 0.30608502 -0.6548909 130 105 127
-1.1891369 1.5439076 2.457975 103 75 100
-0.72968465 -0.7395758 -1.1770717 106 79 86
-0.69230944 0.38776383 0.72957885 105 67 82
-0.47026235 -0.15140845 -1.3104914 70 47 63
-0.4965916 -0.070122756 -0.23545966 49 34 37
-0.033479113 0.27512324 -0.1877661 156 174 224
-0.8093374 0.6913727 1.931567 98 63 87
-0.1042617 -0.0349557 -0.5415961 143 104 122
-1.432379 -0.66518736 -1.1696507 124 148 186
-1.1780431 -0.5095418 -0.8919398 93 107 144
-0.52587044 0.41978693 -0.56833005 127 99 122
-1.5508112 2.4698122 4.3670635 96 68 91
-0.7631287 -0.13925862 -0.30715513 39 37 58
-1.2615995 0.07383862 -0.9876902 36 28 41
-0.39573306 -0.85875183 1.0304093 114 95 117
-0.42476967 -0.41174683 -0.61672485 102 80 103
-0.4365868 -0.5402873 0.6830643 97 80 98
-0.39925376 -0.39447126 -1.0027391 78 66 86
-0.54507405 6.9061953e-06 0.5733754 36 60 96
-0.5295021 0.42875603 -1.1047221 118 92 105
-0.45400485 -0.4406443 0.6470493 119 98 117
-0.53688544 -0.30748233 -0.39221227 116 112 135
0.073863596 -1.8032961 -2.506231 149 111 134
-0.45318878 -0.26742333 -0.59896994 122 99 115
-0.6222463 -0.22639795 0.42058685 141 129 151
-0.9709809 -0.30262715 -0.5743909 102 100 122
-1.1406176 0.15015692 -0.7860174 54 58 83
-0.69431716 -0.32132804 -0.7750571 114 94 106
-0.6535492 0.053235214 -0.5674356 131 150 192
-0.85595125 -0.30715996 -0.5427816 63 66 75
-0.4312928 -0.095157355 0.51282007 157 106 121
-0.54138976 0.013424132 0.56471795 151 168 214
-1.0177133 -0.2957191 -1.2812283 28 68 166
-0.35342523 -1.2404156 1.5772154 113 95 117
-0.4429731 -0.17308497 -0.9257908 110 83 98
-0.65821576 1.4231532 -1.828767 106 87 107
-0.85542375 0.7595719 -1.095414 100 68 89
-0.11330967 -0.10708911 -0.20909026 118 91 108
-0.59686565 0.09342951 1.0083408 106 59 65
-0.55956036 0.98567957 -2.3095639 106 74 85
-0.96508116 -0.098532416 -0.6941966 94 76 92
-0.35318017 -0.4121333 -1.6551225 97 73 87
-0.48515442 0.45470265 -2.0335655 99 81 93
-0.50310576 -0.1021809 -0.16827348 116 95 114
-0.49366143 -0.41608486 0.921513 33 18 21
-0.4934652 -0.22737905 0.51764596 44 55 83
0.86682475 1.0716914 -1.5079664 108 78 88
-1.2192794 -0.75813854 -0.99526244 63 52 58
-0.4740203 -0.11355281 0.16231035 122 97 126
-1.9795485 0.103594966 -2.2637615 109 89 114
-0.48585996 -0.26374608 0.5611457 164 177 229
-1.2652482 1.8513188 4.679025 124 77 93
-0.37570477 0.042815503 -2.1622965 128 72 83
-1.2726538 -0.55025333 -0.9612 100 99 105
-0.2766106 -0.04098358 0.51717275 100 97 116
-1.0744545 0.07490689 -0.9280365 143 161 201
0.98282164 0.47664955 -0.7531175 159 175 227
-0.5552489 0.027297447 0.68366903 95 75 103
-0.5014063 0.38323504 -1.5260874 87 74 84
-0.43546572 -0.6020248 0.8599962 118 98 126
-0.53250235 0.8337478 -2.3224905 126 103 123
-0.7456053 -0.17168589 0.33099517 151 168 214
-1.8703649 4.872797 6.7754974 100 71 91
-0.7148207 -0.41221485 -0.5919634 39 47 50
0.07988647 0.039208952 -0.3329453 94 53 61
-0.5788042 0.6861707 -0.8152354 99 71 94
-0.47851336 0.25548103 -0.35751295 133 163 199
-0.36364755 -0.47026688 -1.2898341 114 87 96
-0.21612285 -0.8968152 1.2814306 106 81 102
-0.5217481 0.06975563 -0.58647686 97 73 89
-0.49159548 -0.027542705 -0.6022661 101 78 107
-0.5524653 0.9019799 -2.2103798 105 78 95
-0.5427026 -0.01866009 0.5743977 39 50 72
-0.69814813 0.12700126 1.3871139 113 70 79
-0.50276875 0.18338864 -0.8718209 116 93 111
-0.6960783 0.35650206 0.7653998 94 52 66
-0.45942986 -0.2963351 0.37759513 136 161 217
-1.1938937 1.7145758 2.1471088 102 66 80
-0.5809712 -0.31900194 1.6978045 98 56 66
-0.40222222 -0.7719631 0.87089825 118 91 108
-0.79642224 0.64890724 0.99566495 126 88 111
-0.8487695 -0.18160714 -0.99467707 91 65 90
-0.4467119 -0.2697507 -0.67230535 124 101 111
-0.5850052 -0.16696131 -0.036626924 99 80 99
-0.7590744 -0.21426445 -0.42445925 81 59 72
-0.45920104 -0.34749892 0.39980054 151 165 212
-0.47245228 -0.044380993 -0.7963092 87 69 81
-0.49471363 -0.26128757 0.6937837 108 91 110
-1.5091152 0.8194135 1.5547545 110 66 81
-0.38624027 0.054058768 0.38491574 63 61 82
-1.0945097 -0.6484258 -1.145459 101 96 119
-0.32547784 -1.559907 2.1655376 135 107 122
-1.0098666 -0.30724332 -0.8151355 125 111 128
0.65907377 -0.3331433 -0.5442556 63 76 82
-0.4115755 -0.7201736 0.86341053 118 98 125
-0.6403376 -0.27586797 2.6779547 42 16 15
-0.48265558 -0.24379385 0.37958416 177 193 244
-0.46299872 0.0577635 -1.2227068 98 74 90
-0.6575364 -0.60445243 0.87448466 119 95 111
-0.43508223 -0.3667473 0.62322617 106 87 106
-0.49872553 -0.24237539 0.69966215 106 85 100
-0.6848008 1.6773367 -2.1783066 114 90 106
-0.55122495 -0.1190868 0.45525426 125 87 102
-0.7142367 0.49756837 1.2615058 127 80 96
-0.55241317 0.840097 -2.0385697 118 100 124
-0.4702263 -0.23597328 0.5885086 112 97 128
-0.72449577 0.18942223 -0.7536702 116 98 120
-0.45668292 -0.19019821 0.14999335 121 102 124
-0.5133572 -0.121688835 0.55312073 43 45 68
-0.34378225 -0.531819 1.1473707 119 69 80
-0.6102561 1.0807263 -1.6700011 108 94 117
-0.4453312 -0.18647845 -0.86384034 121 103 117
-0.49927548 0.4153409 -1.66743 110 86 102
-2.023438 3.9653225 4.979792 88 59 64
-0.62219036 1.4505204 -2.5793223 102 79 95
-0.5613047 0.58274955 -0.87905264 118 95 113
-0.4087824 -0.08201163 0.5447343 128 84 107
0.15421137 -2.0948145 -2.6732237 92 71 80
-0.48225763 -0.250764 0.44646117 104 111 155
-0.36916304 -0.29363215 0.43455136 96 69 88
-1.1941868 1.7151852 2.1480036 102 66 80
